0.820817 0.62452 0.487254 0.12736227 -0.92816037 -0.34971014
0.258502 0.745687 0.526418 -0.39743343 0.02124117 0.91738516
0.268592 0.738698 0.530951 -0.39743343 0.02124117 0.91738516
0.645702 0.109946 0.454665 0.7382945 -0.557904 -0.37903094
0.058146 0.774975 0.531842 -0.8354153 0.3112365 0.45300457
0.811077 0.782375 0.452439 0.0018376394 0.16447656 -0.98637927
0.807123 0.799217 0.45524 0.0018376394 0.16447656 -0.98637927
0.827114 0.797986 0.455072 0.0018376394 0.16447656 -0.98637927
0.298055 0.762431 0.485056 0.2253998 -0.0076686232 -0.97423613
0.648738 0.365831 0.483245 -0.6609779 -0.26242056 0.7030247
0.500647 0.139804 0.551474 -0.99452823 0.060560185 0.08512355
0.342303 0.131895 0.441301 -0.8282874 -0.446386 -0.33864352
0.3445 0.132091 0.435669 -0.8282874 -0.446386 -0.33864352
0.344944 0.12429 0.444866 -0.8282874 -0.446386 -0.33864352
0.409445 0.815703 0.597697 -0.38775766 0.551744 0.7383919
0.919856 0.731501 0.464923 0.3276122 -0.024122119 -0.94450426
0.906729 0.735445 0.460269 0.3276122 -0.024122119 -0.94450426
0.359218 0.729868 0.59543 -0.8546027 0.043558724 0.51745224
0.359261 0.718072 0.596494 -0.8546027 0.043558724 0.51745224
0.512029 0.745212 0.642564 -0.14472295 0.15506782 0.97724575
0.111466 0.654639 0.5458 -0.25472704 -0.39720076 0.8816721
0.602159 0.537098 0.451964 0.615048 0.7879188 0.029997561
0.584169 0.551387 0.445502 0.615048 0.7879188 0.029997561
0.830635 0.743679 0.491753 -0.14183463 -0.118416615 0.98278195
0.677947 0.774937 0.476291 0.9550461 0.29488626 0.030479975
0.678546 0.77415 0.465135 0.9550461 0.29488626 0.030479975
0.67119 0.79593 0.484908 0.9550461 0.29488626 0.030479975
0.580427 0.176116 0.411735 0.0543807 0.7592706 -0.64849895
0.624411 0.690345 0.36708 0.48738337 -0.21818152 -0.8454905
0.468228 0.352462 0.372441 -0.14126986 -0.049812235 -0.98871714
0.441373 0.349943 0.376405 -0.14126986 -0.049812235 -0.98871714
0.723944 0.845672 0.481974 -0.3318615 0.51209354 -0.79222983
0.135741 0.811218 0.543104 0.18068765 -0.23642366 0.954702
0.152165 0.804133 0.538241 0.18068765 -0.23642366 0.954702
0.149007 0.817476 0.542143 0.18068765 -0.23642366 0.954702
0.422325 0.534103 0.523955 -0.48216334 0.81314325 0.32606223
0.439479 0.544012 0.52461 -0.48216334 0.81314325 0.32606223
0.432174 0.093852 0.609614 0.13866378 -0.86664134 0.47927558
0.431733 0.089626 0.6021 0.13866378 -0.86664134 0.47927558
0.642167 0.346236 0.506156 0.9897749 -0.020818943 0.14111099
0.307588 0.740583 0.54169 0.030022997 0.045733303 0.9985024
0.303407 0.729398 0.542328 0.030022997 0.045733303 0.9985024
0.422957 0.872428 0.557016 -0.19463421 0.6817789 0.70519143
0.433965 0.875252 0.557324 -0.19463421 0.6817789 0.70519143
0.425776 0.881944 0.548594 -0.19463421 0.6817789 0.70519143
0.683863 0.710723 0.473582 -0.39435744 -0.171389 -0.90283334
0.694818 0.706587 0.469582 -0.39435744 -0.171389 -0.90283334
0.682498 0.701432 0.475942 -0.39435744 -0.171389 -0.90283334
0.456099 0.085417 0.538868 0.140588 -0.98826134 -0.059787434
0.614655 0.44168 0.380488 0.3547492 0.16875386 -0.919606
0.54777 0.301178 0.371406 0.028851328 -0.09188582 -0.9953515
0.566839 0.307263 0.371397 0.028851328 -0.09188582 -0.9953515
0.651221 0.091858 0.553885 0.63039196 -0.7723239 0.07824174
0.351545 0.308174 0.415945 -0.94809324 -0.10018587 -0.30179825
0.34834 0.308579 0.425879 -0.94809324 -0.10018587 -0.30179825
0.797391 0.875885 0.513721 -0.05125105 0.6645678 0.74546826
0.787915 0.872572 0.516023 -0.05125105 0.6645678 0.74546826
0.634889 0.397078 0.393914 0.9478529 0.023572708 -0.31783518
0.636937 0.399739 0.400219 0.9478529 0.023572708 -0.31783518
0.637129 0.384806 0.399684 0.9478529 0.023572708 -0.31783518
0.506231 0.715825 0.653829 0.39885613 0.57626367 0.713326
0.505269 0.725542 0.646517 0.39885613 0.57626367 0.713326
0.786806 0.842674 0.468491 -0.052917406 0.4120859 -0.9096071
0.413497 0.524411 0.528159 -0.3477019 0.5735598 0.7417092
0.407223 0.528377 0.522151 -0.3477019 0.5735598 0.7417092
0.205323 0.687406 0.486037 -0.017373892 -0.27936056 -0.9600291
0.186353 0.6844 0.487255 -0.017373892 -0.27936056 -0.9600291
0.340005 0.734891 0.58342 -0.6473961 0.051632665 0.7604028
0.327523 0.732372 0.572964 -0.6473961 0.051632665 0.7604028
0.407593 0.224897 0.547731 -0.3967241 -0.4846653 0.7795572
0.397083 0.460659 0.559024 -0.5650894 0.2854069 0.774091
0.553542 0.36652 0.572123 0.25597578 0.07300385 0.9639226
0.561437 0.396315 0.577354 0.34130663 -0.037401434 0.9392076
0.496844 0.583192 0.593305 0.08564169 -0.56338227 0.8217457
0.512954 0.584089 0.592241 0.08564169 -0.56338227 0.8217457
0.389294 0.640875 0.368022 -0.28747302 -0.2870336 -0.9137675
0.386165 0.663549 0.361884 -0.28747302 -0.2870336 -0.9137675
0.546677 0.511228 0.380751 0.16548774 0.34842634 -0.922612
0.55426 0.522521 0.386376 0.16548774 0.34842634 -0.922612
0.562993 0.504694 0.38121 0.16548774 0.34842634 -0.922612
0.430097 0.192407 0.553384 0.16085006 0.9354375 0.31477582
0.32125 0.337662 0.462009 0.66566294 -0.72362816 0.1823599
0.309723 0.327734 0.46469 0.66566294 -0.72362816 0.1823599
0.181191 0.829299 0.48295 -0.07510131 0.24597502 -0.96636236
0.260477 0.285352 0.474199 -0.7912079 -0.20661895 -0.57558554
0.254351 0.296698 0.478547 -0.7912079 -0.20661895 -0.57558554
0.408255 0.875129 0.548789 -0.278762 0.7343897 0.6188405
0.419206 0.889134 0.537102 -0.278762 0.7343897 0.6188405
0.441908 0.09362 0.485334 0.039245006 -0.9681392 -0.2473182
0.388007 0.784499 0.604114 -0.7644704 0.6262729 0.15286344
0.389119 0.78384 0.612375 -0.7644704 0.6262729 0.15286344
0.394398 0.7906 0.61108 -0.7644704 0.6262729 0.15286344
0.285725 0.762608 0.482332 0.17941749 -0.059947528 -0.98194486
0.284591 0.747191 0.483066 0.17941749 -0.059947528 -0.98194486
0.204698 0.777373 0.475655 -0.018264988 -0.007586306 -0.99980444
0.194752 0.762836 0.475947 -0.018264988 -0.007586306 -0.99980444
0.399593 0.65143 0.619802 -0.55081654 -0.40937543 0.72733283
0.393123 0.64659 0.612178 -0.55081654 -0.40937543 0.72733283
0.608131 0.154239 0.406471 0.4193795 0.3687745 -0.82953376
0.605962 0.163238 0.409375 0.4193795 0.3687745 -0.82953376
0.638984 0.257272 0.464749 0.99688274 -0.06878295 -0.03864934
0.309124 0.684725 0.537873 -0.91547495 -0.2114427 0.3423413
0.307723 0.695831 0.540986 -0.91547495 -0.2114427 0.3423413
0.564553 0.194173 0.543125 0.00758483 0.973495 0.22858238
0.280517 0.300091 0.460298 0.08219093 -0.60829955 -0.7894405
0.270721 0.30444 0.455927 0.08219093 -0.60829955 -0.7894405
0.347774 0.172214 0.560372 -0.7626584 0.56896037 0.3076298
0.337348 0.116493 0.525236 -0.9811718 -0.19193725 0.021496959
0.337384 0.118044 0.540726 -0.9811718 -0.19193725 0.021496959
0.539306 0.717642 0.645138 0.024057932 -0.030305274 0.9992511
0.377473 0.749324 0.616798 -0.8851402 0.16011854 0.43690842
0.380939 0.747891 0.624345 -0.8851402 0.16011854 0.43690842
0.637195 0.285064 0.515837 0.9737751 -0.08559084 0.21079941
0.080808 0.709211 0.503185 -0.36909875 -0.17223729 -0.913291
0.087259 0.721809 0.498202 -0.36909875 -0.17223729 -0.913291
0.714405 0.385266 0.459998 0.9045225 0.34678957 -0.24814516
0.706424 0.40539 0.45903 0.9045225 0.34678957 -0.24814516
0.709903 0.401852 0.466767 0.9045225 0.34678957 -0.24814516
0.432579 0.656709 0.352055 -0.19414674 -0.27454418 -0.9417709
0.410507 0.636217 0.362579 -0.19414674 -0.27454418 -0.9417709
0.477293 0.278904 0.378039 -0.113146484 -0.1168335 -0.9866852
0.736159 0.317478 0.549726 -0.773555 -0.119550325 0.6223508
0.724456 0.31698 0.535084 -0.773555 -0.119550325 0.6223508
0.731357 0.31377 0.543045 -0.773555 -0.119550325 0.6223508
0.167123 0.62061 0.527833 -0.18281026 -0.9313582 -0.31488454
0.253194 0.656305 0.545772 0.08170748 -0.07116585 0.99411225
0.57826 0.892156 0.508106 0.39199945 0.870701 0.29701224
0.424637 0.118796 0.415241 0.014920375 -0.8746082 -0.48460075
0.429645 0.112632 0.42652 0.014920375 -0.8746082 -0.48460075
0.419089 0.113375 0.424854 0.014920375 -0.8746082 -0.48460075
0.566425 0.333377 0.369019 0.033628613 -0.05176576 -0.9980929
0.568662 0.35951 0.367739 0.033628613 -0.05176576 -0.9980929
0.665862 0.344671 0.487543 -0.5164505 -0.2352669 0.82336396
0.67675 0.340036 0.493048 -0.5164505 -0.2352669 0.82336396
0.671995 0.312218 0.450448 -0.5900985 -0.5983739 -0.5419708
0.515007 0.718218 0.646205 0.17302321 0.073464215 0.9821741
0.524987 0.71708 0.644532 0.17302321 0.073464215 0.9821741
0.622382 0.09058 0.606084 0.32214758 -0.8583649 0.39928767
0.617247 0.086767 0.60203 0.32214758 -0.8583649 0.39928767
0.625794 0.085717 0.592877 0.32214758 -0.8583649 0.39928767
0.612219 0.673811 0.600378 0.7462662 -0.17934771 0.6410313
0.392034 0.782988 0.625202 -0.85893863 0.5116582 0.02074544
0.387393 0.775454 0.618864 -0.85893863 0.5116582 0.02074544
0.425125 0.711468 0.344789 -0.18733457 -0.06410806 -0.98020196
0.665429 0.751116 0.537296 0.80089545 0.23177241 0.5521305
0.664655 0.774954 0.528412 0.80089545 0.23177241 0.5521305
0.416687 0.094681 0.482604 -0.058748547 -0.9752646 -0.21309035
0.418589 0.091322 0.497453 -0.058748547 -0.9752646 -0.21309035
0.407694 0.09322 0.49177 -0.058748547 -0.9752646 -0.21309035
0.62807 0.740719 0.583841 0.8531011 0.110194325 0.50997627
0.629795 0.721385 0.585133 0.8531011 0.110194325 0.50997627
0.637096 0.73829 0.569267 0.8531011 0.110194325 0.50997627
0.562791 0.768293 0.64018 0.1267915 0.33328313 0.93426245
0.438535 0.603313 0.606304 -0.3920245 -0.6894144 0.6091179
0.431804 0.611074 0.610756 -0.3920245 -0.6894144 0.6091179
0.287982 0.436927 0.486626 -0.7959176 0.5825495 0.1647762
0.302573 0.457233 0.485315 -0.7959176 0.5825495 0.1647762
0.2922 0.444503 0.480216 -0.7959176 0.5825495 0.1647762
0.584155 0.3623 0.368912 0.12157979 -0.047772307 -0.9914314
0.595474 0.350576 0.370865 0.12157979 -0.047772307 -0.9914314
0.481016 0.559248 0.57203 0.03631181 -0.7334374 0.67878646
0.416213 0.148112 0.391212 0.104282655 0.0009583554 -0.99454725
0.294291 0.714228 0.486749 -0.9975698 -0.008678932 -0.06913107
0.294673 0.745473 0.477314 -0.9975698 -0.008678932 -0.06913107
0.768397 0.647809 0.467913 -0.16545653 -0.45211446 -0.87647974
0.758598 0.641857 0.472833 -0.16545653 -0.45211446 -0.87647974
0.752465 0.651509 0.469012 -0.16545653 -0.45211446 -0.87647974
0.423147 0.082992 0.561968 -0.0037718827 -0.99986744 0.015842462
0.435118 0.083063 0.569299 -0.0037718827 -0.99986744 0.015842462
0.423986 0.083163 0.57296 -0.0037718827 -0.99986744 0.015842462
0.430626 0.107969 0.437425 0.04092939 -0.9339562 -0.35503602
0.131326 0.849099 0.533502 -0.19111358 0.45731717 0.8685255
0.146215 0.856151 0.533065 -0.19111358 0.45731717 0.8685255
0.63105 0.408623 0.388346 0.92421156 0.13504905 -0.357204
0.52801 0.517803 0.38118 0.044064626 0.26608855 -0.96294093
0.53815 0.499886 0.376693 0.044064626 0.26608855 -0.96294093
0.329911 0.351115 0.441893 0.23940931 -0.66522115 -0.7072227
0.327282 0.355105 0.43725 0.23940931 -0.66522115 -0.7072227
0.667485 0.647664 0.4651 0.94194204 -0.33333322 -0.040424798
0.691562 0.273571 0.500859 -0.62664866 0.15596785 0.7635349
0.699973 0.281507 0.506141 -0.62664866 0.15596785 0.7635349
0.837233 0.864745 0.480918 0.14588119 0.62707245 -0.76517904
0.54354 0.832204 0.350761 0.14415538 0.25593993 -0.95588386
0.550496 0.81812 0.348039 0.14415538 0.25593993 -0.95588386
0.155015 0.796661 0.480817 -0.17323256 0.11006957 -0.978711
0.138564 0.789398 0.482912 -0.17323256 0.11006957 -0.978711
0.138324 0.80242 0.484419 -0.17323256 0.11006957 -0.978711
0.662276 0.751191 0.398555 0.7738828 0.1304309 -0.6197525
0.650789 0.74545 0.383003 0.7738828 0.1304309 -0.6197525
0.645686 0.769375 0.381666 0.7738828 0.1304309 -0.6197525
0.46822 0.65502 0.635789 0.004250898 -0.69036835 0.7234455
0.476142 0.658944 0.639487 0.004250898 -0.69036835 0.7234455
0.638442 0.817653 0.396708 0.67533386 0.46709615 -0.57074106
0.621412 0.827274 0.384431 0.67533386 0.46709615 -0.57074106
0.319383 0.394999 0.42905 -0.2927031 0.08109272 -0.9527586
0.627724 0.26885 0.528391 0.834516 -0.18784273 0.51797503
0.633923 0.271021 0.519191 0.834516 -0.18784273 0.51797503
0.633643 0.281397 0.523405 0.834516 -0.18784273 0.51797503
0.57415 0.869396 0.543328 0.402151 0.6685556 0.62554616
0.586205 0.864466 0.540847 0.402151 0.6685556 0.62554616
0.586892 0.871743 0.532628 0.402151 0.6685556 0.62554616
0.128575 0.856265 0.507533 -0.42857015 0.777127 -0.46087006
0.122959 0.856263 0.512752 -0.42857015 0.777127 -0.46087006
0.140011 0.865174 0.511921 -0.42857015 0.777127 -0.46087006
0.256138 0.366236 0.484816 -0.91775906 0.39218754 0.062508345
0.255991 0.366553 0.480669 -0.91775906 0.39218754 0.062508345
0.422448 0.176305 0.39914 0.0373852 0.5329796 -0.8453018
0.408375 0.168926 0.393865 0.0373852 0.5329796 -0.8453018
0.407979 0.178825 0.400089 0.0373852 0.5329796 -0.8453018
0.534802 0.912865 0.496421 0.16453487 0.9734158 0.15934235
0.508302 0.916778 0.49988 0.16453487 0.9734158 0.15934235
0.707579 0.704891 0.465669 -0.30905327 -0.16400918 -0.9367962
0.678416 0.790228 0.479149 -0.40702584 0.23984405 -0.88136536
0.683136 0.803897 0.480689 -0.40702584 0.23984405 -0.88136536
0.693719 0.798515 0.474337 -0.40702584 0.23984405 -0.88136536
0.677135 0.71461 0.517316 -0.12539119 -0.14363633 0.9816545
0.687231 0.71736 0.519008 -0.12539119 -0.14363633 0.9816545
0.683924 0.801842 0.522005 -0.18700007 0.06831114 0.9799819
0.70524 0.2767 0.476967 0.51778007 -0.79247904 -0.32230547
0.712303 0.282776 0.473374 0.51778007 -0.79247904 -0.32230547
0.418822 0.1897 0.563521 0.0690024 0.94204545 0.3283125
0.416146 0.193952 0.551883 0.0690024 0.94204545 0.3283125
0.348966 0.107186 0.480326 -0.5720331 -0.7836598 -0.2421888
0.348227 0.113042 0.463123 -0.5720331 -0.7836598 -0.2421888
0.571717 0.55829 0.436027 0.5181808 0.85320693 -0.05938542
0.575867 0.556574 0.447584 0.5181808 0.85320693 -0.05938542
0.310606 0.345053 0.487906 0.443786 -0.41929078 0.79199064
0.302838 0.349413 0.494567 0.443786 -0.41929078 0.79199064
0.300485 0.337582 0.489622 0.443786 -0.41929078 0.79199064
0.434741 0.764533 0.341868 -0.16813813 0.066284865 -0.9835323
0.410939 0.763286 0.345853 -0.16813813 0.066284865 -0.9835323
0.414775 0.785866 0.346719 -0.16813813 0.066284865 -0.9835323
0.326856 0.477235 0.454073 -0.66371727 0.48749024 -0.567303
0.316416 0.468658 0.458917 -0.66371727 0.48749024 -0.567303
0.856867 0.688618 0.455786 0.08896533 -0.16619413 -0.9820716
0.487671 0.770002 0.338318 0.0067783967 0.060314666 -0.99815637
0.488176 0.792783 0.339698 0.0067783967 0.060314666 -0.99815637
0.512824 0.786637 0.339494 0.0067783967 0.060314666 -0.99815637
0.685463 0.438571 0.483211 0.6313817 0.42698205 0.64733565
0.673898 0.45234 0.485409 0.6313817 0.42698205 0.64733565
0.535742 0.090232 0.514596 -0.18214044 -0.974457 -0.13137043
0.672895 0.464364 0.46387 0.82298493 0.5662755 -0.0450322
0.679417 0.454726 0.461866 0.82298493 0.5662755 -0.0450322
0.433244 0.231548 0.559998 -0.20170076 -0.40044564 0.8938457
0.441539 0.213495 0.553782 -0.20170076 -0.40044564 0.8938457
0.138924 0.740142 0.482773 -0.13873701 -0.0915318 -0.9860903
0.517719 0.733063 0.644542 0.101277575 0.092466205 0.99055177
0.48638 0.703345 0.658767 -0.30091867 0.46999177 0.82979256
0.734477 0.747476 0.504057 0.35966277 -0.026535537 0.932705
0.743502 0.729028 0.500052 0.35966277 -0.026535537 0.932705
0.755585 0.743663 0.495809 0.35966277 -0.026535537 0.932705
0.277565 0.421063 0.489023 -0.7132755 0.48804107 0.5030448
0.585296 0.195716 0.533627 0.04253852 0.97667575 0.21046372
0.516468 0.103644 0.475072 -0.31899333 -0.92057765 -0.22534446
0.656661 0.131086 0.570169 0.99163854 -0.021237608 0.12728637
0.656061 0.117348 0.572551 0.99163854 -0.021237608 0.12728637
0.581083 0.65596 0.619242 0.44100633 -0.32300654 0.837365
0.570366 0.651669 0.623231 0.44100633 -0.32300654 0.837365
0.581289 0.644145 0.614576 0.44100633 -0.32300654 0.837365
0.307259 0.657534 0.472765 -0.958718 -0.28394437 -0.015342502
0.298561 0.685833 0.492552 -0.958718 -0.28394437 -0.015342502
0.426088 0.086872 0.595608 0.07041257 -0.93885094 0.3370475
0.48324 0.529724 0.550184 0.013996899 0.4993519 0.8662862
0.495794 0.518762 0.5563 0.013996899 0.4993519 0.8662862
0.293836 0.273199 0.467729 -0.5805363 -0.8012772 0.14468016
0.278117 0.285539 0.472998 -0.5805363 -0.8012772 0.14468016
0.279294 0.284107 0.46979 -0.5805363 -0.8012772 0.14468016
0.259732 0.355662 0.496407 -0.22045018 0.26704627 0.93813
0.255558 0.351721 0.496548 -0.22045018 0.26704627 0.93813
0.794371 0.819216 0.518239 0.009073785 -0.4181379 0.90833825
0.067215 0.769021 0.540271 -0.49897656 0.21186912 0.84031767
0.461075 0.717385 0.651699 0.09129697 -0.2234697 0.9704258
0.63401 0.595417 0.479923 0.7143857 -0.69776165 -0.052742306
0.637771 0.605798 0.515785 0.80130076 -0.57154125 0.17679857
0.650112 0.622937 0.515258 0.80130076 -0.57154125 0.17679857
0.526793 0.090037 0.531662 -0.29641038 -0.9529948 -0.0627831
0.889816 0.855563 0.5003 0.5576899 0.7160245 0.4198702
0.90612 0.843375 0.499429 0.5576899 0.7160245 0.4198702
0.407397 0.141878 0.621188 -0.13188812 0.25361806 0.9582711
0.400162 0.130215 0.623279 -0.13188812 0.25361806 0.9582711
0.41412 0.133967 0.624207 -0.13188812 0.25361806 0.9582711
0.473861 0.122897 0.428246 0.39612788 -0.7186142 -0.5715561
0.471072 0.117549 0.433037 0.39612788 -0.7186142 -0.5715561
0.462286 0.120766 0.422903 0.39612788 -0.7186142 -0.5715561
0.702479 0.404526 0.48872 0.7244828 0.43640018 0.5335537
0.693177 0.424238 0.485228 0.7244828 0.43640018 0.5335537
0.491563 0.853191 0.583776 -0.028573615 0.8236169 0.5664262
0.473958 0.853323 0.582696 -0.028573615 0.8236169 0.5664262
0.308757 0.753263 0.541242 -0.8827315 0.2117146 0.41947818
0.31609 0.78059 0.542881 -0.8827315 0.2117146 0.41947818
0.314116 0.779007 0.539526 -0.8827315 0.2117146 0.41947818
0.377714 0.371265 0.563356 -0.3943912 0.03488037 0.9182804
0.5732 0.7962 0.348458 0.20852381 0.19021854 -0.95934075
0.554629 0.800026 0.34518 0.20852381 0.19021854 -0.95934075
0.240645 0.728143 0.479356 0.06275033 -0.1026594 -0.9927353
0.225061 0.734689 0.477694 0.06275033 -0.1026594 -0.9927353
0.61913 0.445875 0.383946 0.47651005 0.19781402 -0.85662585
0.33867 0.169089 0.520422 -0.9739735 0.22333705 0.038681045
0.340096 0.178659 0.501073 -0.9739735 0.22333705 0.038681045
0.405369 0.088091 0.520327 -0.067544125 -0.98490113 -0.1593981
0.640457 0.085549 0.563883 0.30908218 -0.95019674 0.039928664
0.384174 0.733291 0.628939 -0.96154016 -0.25838572 0.09315172
0.55481 0.829734 0.352191 0.2227524 0.25376147 -0.94126856
0.568797 0.825394 0.354331 0.2227524 0.25376147 -0.94126856
0.145477 0.863035 0.527357 -0.2096521 0.74135715 0.637523
0.157621 0.864887 0.529197 -0.2096521 0.74135715 0.637523
0.147501 0.867312 0.523049 -0.2096521 0.74135715 0.637523
0.257443 0.314039 0.495506 0.1127521 0.008947825 0.9935829
0.362365 0.422537 0.543132 -0.7152548 0.18573329 0.6737312
0.369734 0.42269 0.550913 -0.7152548 0.18573329 0.6737312
0.370806 0.434998 0.548658 -0.7152548 0.18573329 0.6737312
0.641902 0.388163 0.505487 0.99854195 0.023145875 0.048767548
0.642495 0.367812 0.503005 0.99854195 0.023145875 0.048767548
0.65257 0.173754 0.520703 0.7450689 0.6640957 0.06204282
0.170766 0.759078 0.477631 -0.06850681 -0.016695432 -0.9975109
0.184337 0.773475 0.476458 -0.06850681 -0.016695432 -0.9975109
0.083197 0.661572 0.534627 -0.5974575 -0.6703084 0.44014907
0.094641 0.653777 0.53829 -0.5974575 -0.6703084 0.44014907
0.598113 0.197302 0.5138 0.18469727 0.97684354 0.10799828
0.605896 0.194892 0.522288 0.18469727 0.97684354 0.10799828
0.313079 0.754689 0.549918 -0.7979995 0.24264438 0.5516524
0.671049 0.274398 0.480398 -0.70244443 0.17233825 0.6905588
0.675807 0.274646 0.485176 -0.70244443 0.17233825 0.6905588
0.678428 0.287553 0.484621 -0.70244443 0.17233825 0.6905588
0.321676 0.360615 0.492637 0.3801189 -0.5058149 0.77437776
0.657711 0.150472 0.509708 0.99994045 -0.008568209 -0.0067545795
0.657581 0.132675 0.51303 0.99994045 -0.008568209 -0.0067545795
0.657486 0.135009 0.496013 0.99994045 -0.008568209 -0.0067545795
0.264047 0.827819 0.484349 0.124806136 0.19451252 -0.9729277
0.540147 0.108642 0.619774 -0.46424994 -0.26712435 0.8444623
0.596092 0.087404 0.611745 0.01295333 -0.9100987 0.41418898
0.583799 0.088542 0.61463 0.01295333 -0.9100987 0.41418898
0.528207 0.246674 0.380148 0.021755695 -0.23641689 -0.97140807
0.548738 0.253268 0.379003 0.021755695 -0.23641689 -0.97140807
0.548461 0.233487 0.383811 0.021755695 -0.23641689 -0.97140807
0.717337 0.272153 0.519728 0.7088531 0.33984765 0.61808646
0.715918 0.289728 0.511692 0.7088531 0.33984765 0.61808646
0.714816 0.268496 0.52463 0.7088531 0.33984765 0.61808646
0.789272 0.829755 0.523178 0.085923 -0.38839304 0.9174793
0.871789 0.661158 0.46628 0.26095375 -0.426104 -0.86622083
0.679455 0.329102 0.493428 -0.6000966 -0.1215795 0.7906343
0.691501 0.270315 0.482372 0.5004548 -0.8652722 0.029139534
0.669994 0.257794 0.479943 0.5004548 -0.8652722 0.029139534
0.908353 0.70294 0.509628 0.28751346 -0.20264877 0.9360927
0.916452 0.69982 0.506465 0.28751346 -0.20264877 0.9360927
0.919247 0.713509 0.50857 0.28751346 -0.20264877 0.9360927
0.569834 0.55468 0.42235 0.4830562 0.8278982 -0.28502843
0.567323 0.558491 0.429164 0.4830562 0.8278982 -0.28502843
0.481822 0.130958 0.597272 0.8512965 -0.009419973 0.5246004
0.480793 0.122224 0.598785 0.8512965 -0.009419973 0.5246004
0.629624 0.457225 0.398451 0.7354425 0.32143122 -0.596495
0.348012 0.287886 0.439059 -0.98169667 -0.11698935 -0.1502832
0.349255 0.269671 0.445119 -0.98169667 -0.11698935 -0.1502832
0.38681 0.658897 0.613293 -0.58280987 -0.36474466 0.72615016
0.363192 0.364739 0.552106 -0.6815083 0.04229607 0.7305871
0.370749 0.369357 0.558888 -0.6815083 0.04229607 0.7305871
0.370119 0.382957 0.557513 -0.6815083 0.04229607 0.7305871
0.67636 0.378577 0.499187 -0.22288868 -0.11770375 0.967712
0.671429 0.371085 0.49714 -0.22288868 -0.11770375 0.967712
0.403105 0.832544 0.361298 -0.3772408 0.4183834 -0.8262232
0.39138 0.840233 0.370545 -0.3772408 0.4183834 -0.8262232
0.4088 0.844656 0.364831 -0.3772408 0.4183834 -0.8262232
0.493314 0.539146 0.389066 -0.07507652 0.45260024 -0.8885474
0.135287 0.630054 0.523521 -0.2652969 -0.8894725 -0.37209722
0.667556 0.725552 0.53893 0.80504686 -0.003988303 0.5931979
0.655169 0.705805 0.555608 0.80504686 -0.003988303 0.5931979
0.664856 0.700381 0.542425 0.80504686 -0.003988303 0.5931979
0.620063 0.476513 0.513046 0.6455362 0.40398765 0.64813346
0.609477 0.480119 0.521342 0.6455362 0.40398765 0.64813346
0.403858 0.223173 0.408096 -0.3261285 -0.3201948 -0.8894467
0.692353 0.383302 0.430267 0.61932445 0.17797159 -0.76469815
0.69613 0.388802 0.434606 0.61932445 0.17797159 -0.76469815
0.363775 0.159308 0.406041 -0.53099275 0.02873615 -0.84688896
0.697677 0.297702 0.455821 0.36527878 -0.3408561 -0.8662497
0.692468 0.315554 0.4466 0.36527878 -0.3408561 -0.8662497
0.185376 0.649791 0.499748 -0.016709859 -0.39150748 -0.92002314
0.862933 0.722601 0.501754 -0.3107825 0.1560644 0.93758094
0.534035 0.093911 0.600609 -0.34511694 -0.8609757 0.37365124
0.537862 0.090122 0.595413 -0.34511694 -0.8609757 0.37365124
0.550708 0.089011 0.604718 -0.34511694 -0.8609757 0.37365124
0.801989 0.624973 0.482531 0.018511606 -0.95052606 -0.31009278
0.561522 0.758816 0.643417 0.1546625 0.30073118 0.9410846
0.725421 0.646201 0.504855 -0.21737443 -0.5116332 0.831252
0.72938 0.652017 0.50947 -0.21737443 -0.5116332 0.831252
0.931567 0.814003 0.495612 0.80644196 0.4433955 0.3912184
0.539864 0.384442 0.366544 0.007142822 0.010317088 -0.99992126
0.466193 0.125524 0.419773 0.3987817 -0.7095955 -0.5809023
0.289269 0.652758 0.529553 0.5850769 -0.8108624 -0.013681926
0.276894 0.643861 0.527647 0.5850769 -0.8108624 -0.013681926
0.405311 0.46103 0.564822 -0.56107396 0.2822567 0.7781562
0.639868 0.493047 0.487665 0.45284486 0.37522268 0.80878884
0.632374 0.495974 0.490503 0.45284486 0.37522268 0.80878884
0.649814 0.4757 0.490144 0.45284486 0.37522268 0.80878884
0.829288 0.87196 0.486148 0.110624515 0.6602808 -0.7428266
0.470767 0.113041 0.606295 0.52648365 -0.39015007 0.7553793
0.477932 0.089584 0.544451 0.2673217 -0.96331125 -0.023887703
0.470407 0.087718 0.53549 0.2673217 -0.96331125 -0.023887703
0.179361 0.725076 0.479578 -0.08279135 -0.107088625 -0.9907964
0.9447 0.720982 0.484878 0.9456913 -0.18961449 -0.26403472
0.947008 0.734625 0.483347 0.9456913 -0.18961449 -0.26403472
0.344913 0.831837 0.406345 -0.6883702 0.53650105 -0.48817322
0.16758 0.842914 0.488496 -0.120476246 0.34635213 -0.93033636
0.181433 0.853728 0.490728 -0.120476246 0.34635213 -0.93033636
0.349602 0.183286 0.440848 -0.75798887 0.5259436 -0.3857931
0.264816 0.355218 0.457064 -0.7055521 0.24558727 -0.6647428
0.606342 0.83225 0.375202 0.5704937 0.43037325 -0.6995111
0.614196 0.818702 0.373272 0.5704937 0.43037325 -0.6995111
0.150275 0.62415 0.534008 -0.1455551 -0.8803859 0.45136946
0.17019 0.620499 0.533309 -0.1455551 -0.8803859 0.45136946
0.157695 0.625056 0.538168 -0.1455551 -0.8803859 0.45136946
0.174796 0.670358 0.492224 -0.061655216 -0.28748146 -0.9557997
0.168536 0.681698 0.489217 -0.061655216 -0.28748146 -0.9557997
0.667422 0.314002 0.473276 -0.8791858 -0.27082416 0.39202878
0.617078 0.172439 0.42246 0.48314872 0.5663095 -0.6677281
0.284878 0.695498 0.492862 0.24773246 -0.25921637 -0.9335071
0.285254 0.706265 0.489972 0.24773246 -0.25921637 -0.9335071
0.296929 0.70072 0.49461 0.24773246 -0.25921637 -0.9335071
0.524628 0.457458 0.369559 -0.0375465 0.07571301 -0.99642247
0.507877 0.437649 0.368685 -0.0375465 0.07571301 -0.99642247
0.350332 0.284086 0.427625 -0.89984506 -0.15543666 -0.4075762
0.354738 0.285212 0.417468 -0.89984506 -0.15543666 -0.4075762
0.632284 0.10369 0.453048 0.3335042 -0.863622 -0.37806353
0.632641 0.619952 0.547673 0.75430983 -0.49855936 0.42714784
0.636266 0.612388 0.532443 0.75430983 -0.49855936 0.42714784
0.647328 0.629613 0.533013 0.75430983 -0.49855936 0.42714784
0.165395 0.875139 0.514211 -0.27298754 0.8885752 -0.36866245
0.734167 0.767505 0.507979 0.41250148 -0.24398366 0.8776756
0.724143 0.779782 0.516103 0.41250148 -0.24398366 0.8776756
0.720991 0.76192 0.512619 0.41250148 -0.24398366 0.8776756
0.444254 0.127448 0.407853 0.28889057 -0.6030706 -0.74353755
0.443491 0.135745 0.400827 0.28889057 -0.6030706 -0.74353755
0.453883 0.126907 0.412033 0.28889057 -0.6030706 -0.74353755
0.751398 0.697945 0.456823 -0.13168569 -0.15800153 -0.97861856
0.754504 0.68518 0.458466 -0.13168569 -0.15800153 -0.97861856
0.552945 0.310293 0.572015 0.2587839 -0.098917104 0.96085715
0.550851 0.286213 0.5701 0.2587839 -0.098917104 0.96085715
0.57352 0.290714 0.564458 0.2587839 -0.098917104 0.96085715
0.611735 0.408338 0.545887 0.44096282 0.16499585 0.88222903
0.604006 0.419712 0.547623 0.44096282 0.16499585 0.88222903
0.647585 0.125554 0.440913 0.7988859 -0.21090886 -0.56329286
0.641421 0.128572 0.431041 0.7988859 -0.21090886 -0.56329286
0.11881 0.650568 0.511116 -0.27571625 -0.5468883 -0.79050225
0.516397 0.108214 0.460645 -0.49412084 -0.8083719 -0.319968
0.511557 0.114909 0.451205 -0.49412084 -0.8083719 -0.319968
0.764344 0.877473 0.506801 -0.14741851 0.87070173 0.4691975
0.318652 0.77596 0.40696 -0.89071697 0.17846285 -0.41806006
0.70809 0.274181 0.502175 -0.33331835 -0.88812953 -0.31642509
0.711606 0.26709 0.518374 -0.33331835 -0.88812953 -0.31642509
0.703508 0.274716 0.5055 -0.33331835 -0.88812953 -0.31642509
0.556342 0.167534 0.406493 -0.26150602 0.5233947 -0.8109701
0.546204 0.172774 0.413144 -0.26150602 0.5233947 -0.8109701
0.931654 0.764591 0.470945 0.400774 0.10293164 -0.9103765
0.920179 0.774166 0.466976 0.400774 0.10293164 -0.9103765
0.676104 0.802576 0.519249 -0.30339158 0.12044015 0.9452237
0.671179 0.788098 0.519513 -0.30339158 0.12044015 0.9452237
0.640578 0.329017 0.436788 0.9986418 -0.019790504 -0.048195895
0.370955 0.780419 0.589509 -0.35825783 0.24953786 0.8996567
0.353345 0.310433 0.526259 -0.95299506 -0.08822995 0.289855
0.907558 0.749759 0.460519 0.31352767 -0.0015753878 -0.94957775
0.907734 0.771727 0.515944 0.11487274 -0.06589873 0.99119204
0.495359 0.668389 0.644486 0.07321337 -0.45731735 0.88628477
0.608994 0.112491 0.425638 0.22551657 -0.7415339 -0.63187796
0.625478 0.185099 0.450587 0.47385684 0.7974765 -0.37348494
0.633944 0.176927 0.443879 0.47385684 0.7974765 -0.37348494
0.297397 0.835077 0.532113 0.23838218 0.3490051 0.9062943
0.634793 0.132799 0.422658 0.5178985 -0.38676617 -0.76301575
0.628818 0.214602 0.443385 0.95256037 -0.2898914 -0.0926916
0.631289 0.223826 0.439931 0.95256037 -0.2898914 -0.0926916
0.503395 0.122797 0.580134 -0.9447966 -0.1748831 0.2770836
0.506836 0.109477 0.58346 -0.9447966 -0.1748831 0.2770836
0.537419 0.785104 0.630886 0.07593137 0.5395056 0.8385513
0.312305 0.808673 0.53539 0.24827969 0.22366755 0.94251263
0.304588 0.821765 0.534316 0.24827969 0.22366755 0.94251263
0.299207 0.812446 0.537945 0.24827969 0.22366755 0.94251263
0.45964 0.648644 0.630134 0.04830876 -0.61797416 0.7847128
0.458552 0.661092 0.640004 0.04830876 -0.61797416 0.7847128
0.451508 0.657297 0.637449 0.04830876 -0.61797416 0.7847128
0.434631 0.315255 0.578403 -0.10435258 -0.09956048 0.98954445
0.439922 0.291839 0.576605 -0.10435258 -0.09956048 0.98954445
0.186521 0.819285 0.480444 -0.09548421 0.15710111 -0.98295575
0.171794 0.806267 0.479794 -0.09548421 0.15710111 -0.98295575
0.169239 0.818085 0.481931 -0.09548421 0.15710111 -0.98295575
0.396066 0.085524 0.552632 -0.09951568 -0.9924289 -0.07198302
0.409786 0.083936 0.555558 -0.09951568 -0.9924289 -0.07198302
0.404947 0.270936 0.564461 -0.3713422 -0.25516593 0.892746
0.395005 0.260179 0.557251 -0.3713422 -0.25516593 0.892746
0.125293 0.657945 0.504951 -0.22385274 -0.46235928 -0.8579707
0.141091 0.65012 0.505046 -0.22385274 -0.46235928 -0.8579707
0.362711 0.714893 0.362371 -0.48082554 -0.12842754 -0.8673598
0.365812 0.691221 0.364157 -0.48082554 -0.12842754 -0.8673598
0.349927 0.695732 0.372295 -0.48082554 -0.12842754 -0.8673598
0.777443 0.834624 0.525011 0.038713038 -0.18274288 0.9823982
0.759782 0.835366 0.525845 0.038713038 -0.18274288 0.9823982
0.758681 0.86373 0.519292 -0.06923759 0.39548093 0.9158607
0.616757 0.584398 0.444459 0.65741974 -0.6972678 -0.28568685
0.612813 0.585172 0.433494 0.65741974 -0.6972678 -0.28568685
0.623624 0.776171 0.572402 0.8326831 0.31751397 0.45367792
0.627627 0.758779 0.577227 0.8326831 0.31751397 0.45367792
0.632475 0.760012 0.567466 0.8326831 0.31751397 0.45367792
0.372206 0.266832 0.40777 -0.57713217 -0.26503646 -0.77244675
0.363679 0.2626 0.415593 -0.57713217 -0.26503646 -0.77244675
0.36248 0.272978 0.412928 -0.57713217 -0.26503646 -0.77244675
0.372352 0.35622 0.560348 -0.6682937 0.0011248315 0.7438967
0.289226 0.661037 0.510636 0.37090644 -0.5017609 -0.78145015
0.283647 0.667617 0.503763 0.37090644 -0.5017609 -0.78145015
0.299661 0.674063 0.507225 0.37090644 -0.5017609 -0.78145015
0.547611 0.373571 0.57817 0.40379822 -0.37570763 0.8341407
0.556965 0.378105 0.575684 0.40379822 -0.37570763 0.8341407
0.650605 0.388822 0.490266 -0.47974634 -0.13673861 0.86668676
0.642716 0.394659 0.48682 -0.47974634 -0.13673861 0.86668676
0.417131 0.124259 0.407326 -0.040689137 -0.7500149 -0.6601682
0.347055 0.307244 0.437586 -0.99982184 -0.018463757 -0.0039090863
0.347271 0.292535 0.451813 -0.99982184 -0.018463757 -0.0039090863
0.346762 0.320226 0.451205 -0.99982184 -0.018463757 -0.0039090863
0.446012 0.084314 0.542417 0.070913486 -0.9917613 -0.10668032
0.316324 0.349515 0.439627 0.14544934 -0.6147514 -0.7751936
0.373561 0.201265 0.457441 -0.76595664 -0.59206223 -0.2505448
0.36755 0.209865 0.455495 -0.76595664 -0.59206223 -0.2505448
0.377853 0.200391 0.446385 -0.76595664 -0.59206223 -0.2505448
0.374619 0.187948 0.557167 -0.2538009 0.8776232 0.40664795
0.365421 0.182728 0.562692 -0.2538009 0.8776232 0.40664795
0.422058 0.848369 0.574101 -0.12336162 0.46352106 0.8774566
0.426174 0.843013 0.577509 -0.12336162 0.46352106 0.8774566
0.465226 0.215034 0.393853 -0.12600936 -0.28833148 -0.94920313
0.48427 0.230414 0.386653 -0.12600936 -0.28833148 -0.94920313
0.468846 0.624599 0.613477 0.21134041 -0.21259473 0.9540119
0.356278 0.502862 0.447084 -0.5638402 0.5262931 -0.6364745
0.625286 0.388075 0.380785 0.4741129 0.041685406 -0.8794767
0.624414 0.401326 0.380943 0.4741129 0.041685406 -0.8794767
0.304844 0.429862 0.505364 -0.18828118 0.17494299 0.96640843
0.413497 0.89535 0.523194 -0.29780778 0.8837956 0.36085442
0.430014 0.908194 0.505368 -0.29780778 0.8837956 0.36085442
0.875758 0.862837 0.492175 0.32073653 0.75933945 -0.56615525
0.868768 0.860765 0.485436 0.32073653 0.75933945 -0.56615525
0.858197 0.867856 0.488958 0.32073653 0.75933945 -0.56615525
0.895138 0.830567 0.514484 0.38356623 0.2832182 0.87901324
0.466491 0.095243 0.486779 0.12090366 -0.9704369 -0.20888875
0.46976 0.09314 0.498441 0.12090366 -0.9704369 -0.20888875
0.457494 0.091637 0.498324 0.12090366 -0.9704369 -0.20888875
0.099374 0.696254 0.498925 -0.35524118 -0.22485733 -0.9073273
0.08616 0.695869 0.504194 -0.35524118 -0.22485733 -0.9073273
0.46876 0.186565 0.542232 0.31557423 0.89843035 0.30534536
0.457396 0.190282 0.54304 0.31557423 0.89843035 0.30534536
0.343178 0.114785 0.575836 -0.9460845 -0.17574474 0.27209902
0.342547 0.125612 0.580635 -0.9460845 -0.17574474 0.27209902
0.339735 0.12584 0.571005 -0.9460845 -0.17574474 0.27209902
0.638852 0.291607 0.426996 0.99687356 -0.0333539 -0.071628645
0.639344 0.314811 0.423038 0.99687356 -0.0333539 -0.071628645
0.606263 0.376988 0.372352 0.3080598 -0.011304679 -0.95129985
0.449695 0.198902 0.403504 -0.18687515 -0.36558777 -0.9118241
0.62987 0.277424 0.398201 0.7627984 -0.20275405 -0.61402714
0.173034 0.801972 0.532311 0.13811253 -0.40270776 0.9048488
0.586634 0.094828 0.46618 -0.013256063 -0.95771676 -0.28740704
0.570742 0.538931 0.402405 0.3983564 0.56584513 -0.7218943
0.766776 0.710674 0.453322 -0.13283 -0.06712851 -0.988863
0.748458 0.712126 0.455684 -0.13283 -0.06712851 -0.988863
0.618083 0.502541 0.492572 0.26376033 0.28351095 0.92198265
0.807732 0.881023 0.497714 0.039420027 0.91584015 -0.3996034
0.81373 0.878485 0.492489 0.039420027 0.91584015 -0.3996034
0.799175 0.879879 0.494248 0.039420027 0.91584015 -0.3996034
0.360875 0.097488 0.580989 -0.49357584 -0.7789201 0.38686737
0.36989 0.096697 0.590898 -0.49357584 -0.7789201 0.38686737
0.362015 0.102153 0.591836 -0.49357584 -0.7789201 0.38686737
0.618216 0.741626 0.60386 0.83490634 0.16195355 0.52602524
0.619964 0.750196 0.598447 0.83490634 0.16195355 0.52602524
0.61704 0.755578 0.601431 0.83490634 0.16195355 0.52602524
0.413099 0.577828 0.398929 -0.35456055 -0.74726343 -0.56203574
0.302324 0.707859 0.433849 -0.97344995 -0.04977441 -0.22342281
0.408981 0.114487 0.423659 -0.08983738 -0.8666671 -0.49073142
0.397945 0.114477 0.425697 -0.08983738 -0.8666671 -0.49073142
0.254037 0.639938 0.51298 0.19240057 -0.63374007 -0.74923664
0.874945 0.641726 0.48324 0.44803575 -0.76821506 -0.45728493
0.890303 0.650389 0.483734 0.44803575 -0.76821506 -0.45728493
0.414788 0.087986 0.598086 -0.032493755 -0.95863295 0.28278446
0.429665 0.093729 0.484686 -0.03692357 -0.9756985 -0.21598399
0.721899 0.72153 0.509958 0.3753187 0.007938343 0.9268619
0.717852 0.742052 0.511421 0.3753187 0.007938343 0.9268619
0.709298 0.726853 0.515015 0.3753187 0.007938343 0.9268619
0.610107 0.280364 0.382834 0.4014491 -0.22271186 -0.88839066
0.455848 0.118221 0.616764 0.42133036 -0.26497743 0.86733365
0.452815 0.109143 0.615464 0.42133036 -0.26497743 0.86733365
0.537999 0.630332 0.611305 -0.033150867 -0.11183514 0.99317366
0.528383 0.628591 0.610788 -0.033150867 -0.11183514 0.99317366
0.538547 0.622905 0.610487 -0.033150867 -0.11183514 0.99317366
0.242103 0.322467 0.47383 -0.8419611 0.030473735 -0.53867686
0.246342 0.330203 0.467642 -0.8419611 0.030473735 -0.53867686
0.388429 0.586797 0.565968 -0.48919618 -0.61957085 0.61385584
0.599443 0.520561 0.405637 0.6211193 0.5428212 -0.5652928
0.60473 0.523684 0.414445 0.6211193 0.5428212 -0.5652928
0.612266 0.51413 0.413551 0.6211193 0.5428212 -0.5652928
0.369655 0.39662 0.555617 -0.70576966 0.07380814 0.7045861
0.362152 0.394323 0.548342 -0.70576966 0.07380814 0.7045861
0.35271 0.178975 0.556229 -0.5299996 0.7853477 0.31988952
0.356457 0.185726 0.545863 -0.5299996 0.7853477 0.31988952
0.292682 0.363216 0.50227 0.14531454 -0.27674446 0.9498927
0.294581 0.354606 0.499471 0.14531454 -0.27674446 0.9498927
0.301422 0.362619 0.500759 0.14531454 -0.27674446 0.9498927
0.49444 0.188103 0.401042 -0.11033051 -0.42634073 -0.8978089
0.482651 0.18678 0.403119 -0.11033051 -0.42634073 -0.8978089
0.123959 0.795607 0.486751 -0.20927225 0.108606435 -0.9718075
0.575292 0.5338 0.50422 0.47611135 0.66661716 0.5735325
0.585471 0.523751 0.50745 0.47611135 0.66661716 0.5735325
0.583124 0.533673 0.497866 0.47611135 0.66661716 0.5735325
0.482139 0.180857 0.539074 0.7237273 0.6551102 0.21690899
0.488588 0.171929 0.544521 0.7237273 0.6551102 0.21690899
0.489121 0.174682 0.534428 0.7237273 0.6551102 0.21690899
0.701106 0.392279 0.441097 0.7091048 0.22969356 -0.66664183
0.694765 0.668898 0.508266 -0.37121484 -0.4082547 0.833983
0.685907 0.684429 0.511926 -0.37121484 -0.4082547 0.833983
0.565753 0.508576 0.547374 0.3028642 0.503201 0.80935895
0.557175 0.520594 0.543112 0.3028642 0.503201 0.80935895
0.550778 0.511884 0.550921 0.3028642 0.503201 0.80935895
0.508539 0.685854 0.659332 0.08824915 -0.2878758 0.953593
0.501557 0.690786 0.661467 0.08824915 -0.2878758 0.953593
0.494721 0.681161 0.659194 0.08824915 -0.2878758 0.953593
0.449963 0.135323 0.618133 0.4285324 0.30564615 0.85025907
0.393632 0.621016 0.375188 -0.30746806 -0.38169357 -0.8716498
0.539114 0.473202 0.371593 0.06571989 0.16374998 -0.9843103
0.375456 0.201229 0.507728 -0.1726435 0.97017735 0.170147
0.351122 0.429474 0.501065 -0.98920625 0.06317189 0.13221338
0.351807 0.4137 0.513727 -0.98920625 0.06317189 0.13221338
0.487689 0.62437 0.356198 0.010346587 -0.36917707 -0.92930156
0.512666 0.610012 0.36218 0.010346587 -0.36917707 -0.92930156
0.48773 0.604543 0.364075 0.010346587 -0.36917707 -0.92930156
0.508806 0.146248 0.588778 -0.8103992 0.2306744 0.5385558
0.515227 0.14008 0.601082 -0.8103992 0.2306744 0.5385558
0.620223 0.109059 0.435521 0.15861265 -0.86288726 -0.47986215
0.151999 0.638974 0.509632 -0.15288968 -0.59835815 -0.7865064
0.165326 0.635248 0.509876 -0.15288968 -0.59835815 -0.7865064
0.431943 0.738802 0.342247 -0.16529901 0.003448178 -0.9862374
0.524661 0.094646 0.591002 -0.49075836 -0.76312476 0.42047217
0.494313 0.808897 0.620981 -0.0024144144 0.5243564 0.85149556
0.668453 0.42362 0.496156 0.09571016 0.114780016 0.98876953
0.786698 0.70951 0.451641 -0.03758612 -0.07403993 -0.9965467
0.803259 0.725209 0.44985 -0.03758612 -0.07403993 -0.9965467
0.808442 0.706238 0.451064 -0.03758612 -0.07403993 -0.9965467
0.439185 0.710405 0.653911 -0.037336543 -0.46560392 0.8842053
0.431898 0.716639 0.656886 -0.037336543 -0.46560392 0.8842053
0.245496 0.8721 0.524359 0.16857381 0.6163517 0.7692161
0.24045 0.867557 0.529105 0.16857381 0.6163517 0.7692161
0.63462 0.37897 0.529818 0.9029608 0.054200657 0.42629108
0.700608 0.418295 0.459355 0.88817483 0.43392038 -0.15119052
0.700538 0.421123 0.46706 0.88817483 0.43392038 -0.15119052
0.596244 0.082321 0.527068 -0.011713439 -0.9932945 -0.11501709
0.588733 0.08145 0.535355 -0.011713439 -0.9932945 -0.11501709
0.341342 0.601072 0.469782 -0.78706807 -0.6157916 -0.03639337
0.340045 0.601552 0.48971 -0.78706807 -0.6157916 -0.03639337
0.327803 0.617579 0.483281 -0.78706807 -0.6157916 -0.03639337
0.633401 0.378809 0.389725 0.80260885 0.018428722 -0.59622085
0.62923 0.390966 0.384486 0.80260885 0.018428722 -0.59622085
0.632465 0.39382 0.388929 0.80260885 0.018428722 -0.59622085
0.433707 0.638831 0.627257 -0.14206159 -0.4193295 0.89665
0.431328 0.507004 0.556003 -0.21336554 0.44637036 0.8690389
0.428487 0.496628 0.560635 -0.21336554 0.44637036 0.8690389
0.442583 0.500204 0.562259 -0.21336554 0.44637036 0.8690389
0.51387 0.76324 0.338443 0.06663078 0.04481095 -0.99677086
0.53665 0.783576 0.34088 0.06663078 0.04481095 -0.99677086
0.532434 0.151718 0.60845 -0.46909383 0.56098086 0.68209344
0.531887 0.159739 0.601477 -0.46909383 0.56098086 0.68209344
0.612549 0.83918 0.384912 0.5696452 0.45179027 -0.68657833
0.605309 0.221349 0.401045 0.37162802 -0.38382727 -0.84532195
0.310048 0.727392 0.412084 -0.92516845 -0.05294906 -0.3758454
0.854927 0.732431 0.4982 -0.3809584 0.023900904 0.9242832
0.576549 0.081847 0.537489 -0.07255871 -0.98903954 -0.1285928
0.638319 0.739943 0.371453 0.55017984 0.058179908 -0.83301693
0.634201 0.762649 0.370319 0.55017984 0.058179908 -0.83301693
0.401211 0.105329 0.618465 -0.17559601 -0.4011021 0.89904565
0.718926 0.642616 0.495071 -0.4123724 -0.9108038 -0.01963396
0.107556 0.704823 0.547369 0.2763544 0.18247809 0.943573
0.11885 0.704612 0.544102 0.2763544 0.18247809 0.943573
0.662461 0.697036 0.401992 0.8864835 -0.09840071 -0.4521772
0.487612 0.113493 0.458849 0.7460826 -0.546377 -0.38056904
0.824364 0.657705 0.509625 0.011721998 -0.027313562 0.99955815
0.851847 0.663643 0.509465 0.011721998 -0.027313562 0.99955815
0.675416 0.352144 0.494879 -0.44112578 -0.27473485 0.85435873
0.511753 0.75588 0.640369 -0.17603372 0.19401614 0.9650751
0.615453 0.701199 0.360548 0.47210953 -0.1346518 -0.87119544
0.275797 0.394612 0.501962 -0.4647972 0.15231913 0.87221694
0.284552 0.397157 0.506183 -0.4647972 0.15231913 0.87221694
0.281499 0.404533 0.503268 -0.4647972 0.15231913 0.87221694
0.40808 0.899732 0.506481 -0.32398224 0.88407964 0.33680665
0.279946 0.700186 0.542897 -0.07808451 0.074969664 0.99412394
0.221497 0.70352 0.482525 0.007878613 -0.18533772 -0.9826433
0.199612 0.701227 0.482782 0.007878613 -0.18533772 -0.9826433
0.530378 0.125659 0.419467 -0.38979203 -0.5281461 -0.754403
0.545048 0.127649 0.410494 -0.38979203 -0.5281461 -0.754403
0.445227 0.741528 0.659586 0.113539524 0.13395418 0.9844618
0.454576 0.747288 0.657724 0.113539524 0.13395418 0.9844618
0.446108 0.754723 0.657689 0.113539524 0.13395418 0.9844618
0.610607 0.648413 0.371942 0.4994724 -0.39026114 -0.7734492
0.74464 0.648673 0.509918 -0.10086388 -0.33476877 0.9368865
0.736488 0.657359 0.512144 -0.10086388 -0.33476877 0.9368865
0.25593 0.846005 0.488375 0.10987125 0.28810695 -0.9512742
0.258158 0.836006 0.485604 0.10987125 0.28810695 -0.9512742
0.715741 0.302998 0.512388 -0.26745823 -0.8583501 0.43783697
0.733247 0.311129 0.539022 -0.26745823 -0.8583501 0.43783697
0.416099 0.837076 0.578874 -0.47618365 0.6906213 0.54432654
0.401808 0.824526 0.582295 -0.47618365 0.6906213 0.54432654
0.409729 0.824974 0.588656 -0.47618365 0.6906213 0.54432654
0.65747 0.648459 0.531565 0.84243476 -0.2909106 0.45351368
0.64064 0.345721 0.433789 0.99738145 -0.02608806 -0.06745052
0.640372 0.351382 0.427636 0.99738145 -0.02608806 -0.06745052
0.469995 0.891477 0.383735 -0.04907295 0.7009317 -0.7115381
0.494635 0.880115 0.370843 -0.04907295 0.7009317 -0.7115381
0.536613 0.371682 0.581366 0.23133393 -0.2146506 0.9488992
0.535291 0.381813 0.58398 0.23133393 -0.2146506 0.9488992
0.523887 0.370336 0.584164 0.23133393 -0.2146506 0.9488992
0.507574 0.175947 0.542874 -0.6896504 0.68791634 0.22617121
0.512283 0.181789 0.539464 -0.6896504 0.68791634 0.22617121
0.540258 0.836285 0.591664 0.2422825 0.63944024 0.729668
0.526473 0.830784 0.601062 0.2422825 0.63944024 0.729668
0.467231 0.577035 0.382504 -0.053326 -0.5886653 -0.80661607
0.596728 0.08502 0.509569 -0.034144994 -0.9845277 -0.17187004
0.098004 0.661057 0.544324 -0.4170956 -0.4579899 0.7850328
0.487006 0.741332 0.645195 0.32386032 0.10083766 0.94071573
0.612186 0.464219 0.527406 0.8828016 0.22217068 0.41388595
0.579236 0.504233 0.542741 0.4337658 0.44753963 0.7820202
0.573571 0.495638 0.550802 0.4337658 0.44753963 0.7820202
0.583625 0.493837 0.546256 0.4337658 0.44753963 0.7820202
0.830832 0.854504 0.52131 0.11674107 0.20892225 0.9709393
0.845202 0.851856 0.520152 0.11674107 0.20892225 0.9709393
0.683424 0.441245 0.448738 0.73962474 0.4326742 -0.51550776
0.774739 0.850424 0.473173 -0.101199545 0.47800267 -0.87250906
0.653652 0.102243 0.492261 0.9459371 -0.31271157 -0.0861076
0.655972 0.10468 0.508897 0.9459371 -0.31271157 -0.0861076
0.65414 0.098967 0.509519 0.9459371 -0.31271157 -0.0861076
0.600793 0.745394 0.6299 0.62676895 0.16073732 0.7624462
0.608584 0.744485 0.623687 0.62676895 0.16073732 0.7624462
0.603499 0.75735 0.625155 0.62676895 0.16073732 0.7624462
0.611681 0.600068 0.553908 0.5696482 -0.637923 0.5182231
0.928982 0.781914 0.472404 0.5142199 0.23459375 -0.82495064
0.698572 0.294558 0.505234 -0.6830218 -0.022585357 0.73004866
0.645219 0.150355 0.592929 0.6058724 0.5786424 0.5459776
0.637447 0.158188 0.593252 0.6058724 0.5786424 0.5459776
0.494434 0.149578 0.535528 0.9996134 -0.006538369 0.027021786
0.494155 0.127342 0.540469 0.9996134 -0.006538369 0.027021786
0.494773 0.142807 0.521349 0.9996134 -0.006538369 0.027021786
0.337304 0.138747 0.509756 -0.999793 0.01831643 -0.008859885
0.636962 0.303763 0.408507 0.9888335 -0.056190662 -0.13802546
0.736375 0.314643 0.534636 0.9689531 -0.03075564 -0.24532439
0.902061 0.75883 0.514972 -0.15603635 -0.1155549 0.9809688
0.890751 0.761012 0.51343 -0.15603635 -0.1155549 0.9809688
0.368691 0.295703 0.550638 -0.5931808 -0.15334103 0.790331
0.380156 0.302599 0.560581 -0.5931808 -0.15334103 0.790331
0.367697 0.309078 0.552487 -0.5931808 -0.15334103 0.790331
0.286317 0.684328 0.496969 0.26400882 -0.30270934 -0.9157873
0.565642 0.628799 0.614202 0.30198047 -0.50224835 0.8102805
0.608063 0.63845 0.375054 0.5245811 -0.3729979 -0.765302
0.771597 0.781191 0.500491 0.25467268 -0.34247217 0.9043532
0.756045 0.787939 0.507426 0.25467268 -0.34247217 0.9043532
0.758626 0.767476 0.49895 0.25467268 -0.34247217 0.9043532
0.584531 0.268015 0.379289 0.18897507 -0.22018862 -0.95697725
0.596697 0.275088 0.380064 0.18897507 -0.22018862 -0.95697725
0.595826 0.260059 0.38335 0.18897507 -0.22018862 -0.95697725
0.163122 0.644569 0.548734 -0.015957212 -0.07237958 0.9972495
0.146793 0.647328 0.548673 -0.015957212 -0.07237958 0.9972495
0.638916 0.410726 0.41131 0.98887503 0.0597397 -0.13622525
0.638023 0.429503 0.413062 0.98887503 0.0597397 -0.13622525
0.611232 0.353498 0.374238 0.32386094 -0.072543144 -0.94331944
0.606979 0.340857 0.37375 0.32386094 -0.072543144 -0.94331944
0.653056 0.720074 0.38539 0.685173 -0.11192411 -0.7197298
0.582041 0.898012 0.470511 0.5273731 0.8459317 0.07922823
0.599174 0.885708 0.487839 0.5273731 0.8459317 0.07922823
0.600695 0.886549 0.468735 0.5273731 0.8459317 0.07922823
0.435292 0.377569 0.578681 -0.4270324 -0.25000715 0.8689878
0.747768 0.656171 0.512198 -0.018088626 -0.12672035 0.9917735
0.743085 0.663641 0.513067 -0.018088626 -0.12672035 0.9917735
0.78745 0.829623 0.463789 -0.04176208 0.31531763 -0.94806683
0.802091 0.837323 0.465705 -0.04176208 0.31531763 -0.94806683
0.804618 0.826614 0.462032 -0.04176208 0.31531763 -0.94806683
0.463827 0.086703 0.570863 0.22347707 -0.95669794 0.18651266
0.461859 0.088936 0.584675 0.22347707 -0.95669794 0.18651266
0.70306 0.786778 0.523768 0.082145855 -0.117518194 0.9896674
0.699585 0.772803 0.522397 0.082145855 -0.117518194 0.9896674
0.71895 0.300821 0.509524 0.37462655 -0.90233594 0.2131779
0.723597 0.304655 0.517586 0.37462655 -0.90233594 0.2131779
0.649333 0.106926 0.595253 0.8473312 -0.14200392 0.51172715
0.754457 0.635295 0.478529 -0.17010422 -0.58255213 -0.794794
0.544199 0.539837 0.393364 0.24179606 0.58818245 -0.7717357
0.537543 0.552003 0.400551 0.24179606 0.58818245 -0.7717357
0.553596 0.548621 0.403003 0.24179606 0.58818245 -0.7717357
0.258576 0.271705 0.480203 -0.9838123 -0.17005625 -0.056518376
0.255144 0.290512 0.483356 -0.9838123 -0.17005625 -0.056518376
0.517329 0.147951 0.599133 -0.7526658 0.34053332 0.56349903
0.475445 0.637877 0.618766 -0.09010482 -0.50791824 0.85667974
0.296916 0.784828 0.540134 -0.14645375 -0.04878276 0.988014
0.789629 0.660029 0.460859 -0.027043318 -0.31511587 -0.9486678
0.808079 0.665135 0.458637 -0.027043318 -0.31511587 -0.9486678
0.802858 0.654414 0.462347 -0.027043318 -0.31511587 -0.9486678
0.300857 0.848656 0.522056 0.5508254 0.72627 0.41124585
0.29187 0.856126 0.520901 0.5508254 0.72627 0.41124585
0.389262 0.541969 0.426792 -0.54091525 0.60936254 -0.579731
0.398611 0.541677 0.417762 -0.54091525 0.60936254 -0.579731
0.389161 0.532241 0.416661 -0.54091525 0.60936254 -0.579731
0.805166 0.850101 0.524203 0.0042403326 0.13539705 0.9907823
0.795122 0.85526 0.523541 0.0042403326 0.13539705 0.9907823
0.712966 0.711507 0.514528 0.27096102 0.03423529 0.96198136
