0.025316 0.054098 0.293994 0.084386 0.180328 0.979980
0.018739 -0.059743 0.293393 0.062463 -0.199142 0.977978
-0.056553 0.032774 0.292793 -0.188511 0.109246 0.975976
0.066412 0.014600 0.292192 0.221373 0.048668 0.973974
-0.040563 -0.057697 0.291592 -0.135211 -0.192324 0.971972
-0.009377 0.072362 0.290991 -0.031257 0.241208 0.969970
0.057595 -0.048541 0.290390 0.191983 -0.161804 0.967968
-0.077534 -0.003206 0.289790 -0.258448 -0.010688 0.965966
0.056572 0.056296 0.289189 0.188572 0.187654 0.963964
-0.003786 -0.081868 0.288589 -0.012619 -0.272892 0.961962
-0.053846 0.064525 0.287988 -0.179486 0.215085 0.959960
0.085304 -0.011478 0.287387 0.284346 -0.038258 0.957958
-0.072279 -0.050290 0.286787 -0.240930 -0.167633 0.955956
0.019750 0.087792 0.286186 0.065834 0.292639 0.953954
0.045678 -0.079714 0.285586 0.152260 -0.265715 0.951952
-0.089287 0.028485 0.284985 -0.297623 0.094950 0.949950
0.086719 0.040066 0.284384 0.289064 0.133555 0.947948
-0.037563 -0.089754 0.283784 -0.125209 -0.299181 0.945946
-0.033518 0.093187 0.283183 -0.111725 0.310624 0.943944
0.089168 -0.046864 0.282583 0.297225 -0.156213 0.941942
-0.099020 -0.026101 0.281982 -0.330065 -0.087004 0.939940
0.056269 0.087512 0.281381 0.187564 0.291705 0.937938
0.017895 -0.104125 0.280781 0.059649 -0.347082 0.935936
-0.084781 0.065660 0.280180 -0.282605 0.218865 0.933934
0.108419 0.008982 0.279580 0.361395 0.029941 0.931932
-0.074917 -0.080983 0.278979 -0.249722 -0.269943 0.929930
0.000546 0.111827 0.278378 0.001818 0.372755 0.927928
0.076132 -0.083925 0.277778 0.253774 -0.279749 0.925926
-0.114283 0.010592 0.277177 -0.380944 0.035306 0.923924
0.092570 0.070258 0.276577 0.308568 0.234192 0.921922
-0.021054 -0.115732 0.275976 -0.070181 -0.385775 0.919920
-0.063397 0.100744 0.275375 -0.211322 0.335812 0.917918
0.116129 -0.031826 0.274775 0.387096 -0.106087 0.915916
-0.108339 -0.055598 0.274174 -0.361131 -0.185326 0.913914
0.042797 0.115438 0.273574 0.142657 0.384793 0.911912
0.046920 -0.115257 0.272973 0.156400 -0.384192 0.909910
-0.113636 0.053854 0.272372 -0.378785 0.179513 0.907908
0.121405 0.037430 0.271772 0.404682 0.124768 0.905906
-0.064882 -0.110709 0.271171 -0.216273 -0.369031 0.903904
-0.027206 0.126694 0.270571 -0.090687 0.422314 0.901902
0.106658 -0.075765 0.269970 0.355526 -0.252549 0.899900
-0.131047 -0.016332 0.269369 -0.436824 -0.054441 0.897898
0.086388 0.101492 0.268769 0.287958 0.338305 0.895896
0.004901 -0.134394 0.268168 0.016337 -0.447981 0.893894
-0.095232 0.096636 0.267568 -0.317440 0.322120 0.891892
0.136674 -0.006988 0.266967 0.455580 -0.023294 0.889890
-0.106398 -0.087911 0.266366 -0.354660 -0.293038 0.887888
0.019231 0.137836 0.265766 0.064102 0.459453 0.885886
0.079574 -0.115566 0.265165 0.265246 -0.385219 0.883884
-0.137839 0.031716 0.264565 -0.459464 0.105722 0.881882
0.124035 0.070273 0.263964 0.413450 0.234244 0.879880
-0.044332 -0.136654 0.263363 -0.147774 -0.455514 0.877878
-0.060074 0.131707 0.262763 -0.200247 0.439024 0.875876
0.134263 -0.056961 0.262162 0.447542 -0.189870 0.873874
-0.138490 -0.049050 0.261562 -0.461635 -0.163502 0.871872
0.069485 0.130657 0.260961 0.231617 0.435523 0.869870
0.037285 -0.144299 0.260360 0.124283 -0.480998 0.867868
-0.125841 0.081785 0.259760 -0.419471 0.272618 0.865866
0.149057 0.024869 0.259159 0.496858 0.082896 0.863864
-0.093743 -0.119832 0.258559 -0.312478 -0.399439 0.861862
-0.011901 0.152696 0.257958 -0.039669 0.508987 0.859860
0.112656 -0.105242 0.257357 0.375520 -0.350806 0.857858
-0.155157 0.001514 0.256757 -0.517190 0.005046 0.855856
0.116167 0.104352 0.256156 0.387222 0.347840 0.853854
-0.015264 -0.156392 0.255556 -0.050881 -0.521306 0.851852
-0.094970 0.126407 0.254955 -0.316567 0.421356 0.849850
0.156362 -0.029234 0.254354 0.521208 -0.097448 0.847848
-0.135856 -0.084570 0.253754 -0.452854 -0.281901 0.845846
0.043305 0.155042 0.253153 0.144350 0.516808 0.843844
0.073223 -0.144415 0.252553 0.244078 -0.481382 0.841842
-0.152416 0.057354 0.251952 -0.508055 0.191179 0.839840
0.151988 0.061010 0.251351 0.506626 0.203366 0.837838
-0.071257 -0.148481 0.250751 -0.237523 -0.494936 0.835836
-0.048019 0.158490 0.250150 -0.160063 0.528300 0.833834
0.143243 -0.084890 0.249550 0.477478 -0.282967 0.831832
-0.163843 -0.034348 0.248949 -0.546144 -0.114494 0.829830
0.098130 0.136725 0.248348 0.327099 0.455749 0.827828
0.020103 -0.167979 0.247748 0.067011 -0.559930 0.825826
-0.128956 0.110854 0.247147 -0.429853 0.369514 0.823824
0.170838 0.005396 0.246547 0.569461 0.017986 0.821822
-0.122944 -0.119981 0.245946 -0.409812 -0.399936 0.819820
0.009657 0.172373 0.245345 0.032189 0.574576 0.817818
0.109854 -0.134284 0.244745 0.366180 -0.447612 0.815816
-0.172546 0.024932 0.244144 -0.575152 0.083107 0.813814
0.144764 0.098641 0.243544 0.482546 0.328803 0.811812
-0.040304 -0.171331 0.242943 -0.134346 -0.571103 0.809810
-0.086417 0.154280 0.242342 -0.288058 0.514266 0.807808
0.168715 -0.055644 0.241742 0.562383 -0.185480 0.805806
-0.162735 -0.073269 0.241141 -0.542449 -0.244231 0.803804
0.070822 0.164695 0.240541 0.236074 0.548984 0.801802
0.059292 -0.170039 0.239940 0.197641 -0.566796 0.799800
-0.159282 0.085708 0.239339 -0.530941 0.285693 0.797798
0.176112 0.044590 0.238739 0.587041 0.148632 0.795796
-0.100172 -0.152499 0.238138 -0.333906 -0.508329 0.793794
-0.029273 0.180884 0.237538 -0.097575 0.602947 0.791792
0.144379 -0.114086 0.236937 0.481263 -0.380286 0.789790
-0.184293 -0.013459 0.236336 -0.614311 -0.044864 0.787788
0.127326 0.134970 0.235736 0.424419 0.449899 0.785786
-0.002727 -0.186290 0.235135 -0.009088 -0.620967 0.783784
-0.124329 0.139771 0.234535 -0.414430 0.465903 0.781782
0.186837 -0.019156 0.233934 0.622789 -0.063854 0.779780
-0.151306 -0.112526 0.233333 -0.504352 -0.375087 0.777778
0.035698 0.185906 0.232733 0.118992 0.619688 0.775776
0.099642 -0.161822 0.232132 0.332139 -0.539405 0.773774
-0.183485 0.052215 0.231532 -0.611616 0.174052 0.771772
0.171217 0.085766 0.230931 0.570722 0.285885 0.769770
-0.068574 -0.179571 0.230330 -0.228579 -0.598569 0.767768
-0.070998 0.179398 0.229730 -0.236661 0.597992 0.765766
0.174174 -0.084635 0.229129 0.580581 -0.282117 0.763764
-0.186280 -0.055448 0.228529 -0.620933 -0.184826 0.761762
0.100265 0.167320 0.227928 0.334215 0.557732 0.759760
0.039231 -0.191789 0.227327 0.130770 -0.639298 0.757758
-0.159043 0.115328 0.226727 -0.530142 0.384425 0.755756
0.195862 0.022472 0.226126 0.652874 0.074905 0.753754
-0.129694 -0.149391 0.225526 -0.432312 -0.497972 0.751752
-0.005299 0.198446 0.224925 -0.017662 0.661486 0.749750
0.138427 -0.143236 0.224324 0.461422 -0.477454 0.747748
-0.199499 0.012153 0.223724 -0.664998 0.040510 0.745746
0.155835 0.126220 0.223123 0.519449 0.420735 0.743744
-0.029746 -0.198995 0.222523 -0.099152 -0.663316 0.741742
-0.112856 0.167374 0.221922 -0.376186 0.557915 0.739740
0.196916 -0.047338 0.221321 0.656388 -0.157792 0.737738
-0.177748 -0.098427 0.220721 -0.592495 -0.328089 0.735736
0.064787 0.193261 0.220120 0.215955 0.644203 0.733734
0.083037 -0.186858 0.219520 0.276790 -0.622861 0.731732
-0.188039 0.081950 0.218919 -0.626797 0.273166 0.729730
0.194615 0.066799 0.218318 0.648717 0.222663 0.727728
-0.098685 -0.181274 0.217718 -0.328949 -0.604247 0.725726
-0.049834 0.200940 0.217117 -0.166113 0.669799 0.723724
0.173002 -0.114852 0.216517 0.576673 -0.382839 0.721722
-0.205764 -0.032270 0.215916 -0.685881 -0.107566 0.719720
0.130314 0.163272 0.215315 0.434379 0.544239 0.717718
0.014241 -0.209033 0.214715 0.047471 -0.696777 0.715716
-0.152145 0.144938 0.214114 -0.507151 0.483126 0.713714
0.210701 -0.004112 0.213514 0.702338 -0.013707 0.711712
-0.158598 -0.139696 0.212913 -0.528659 -0.465653 0.709710
0.022646 0.210738 0.212312 0.075487 0.702461 0.707708
0.126009 -0.171172 0.211712 0.420029 -0.570574 0.705706
-0.209125 0.041215 0.211111 -0.697085 0.137383 0.703704
0.182549 0.111180 0.210511 0.608498 0.370601 0.701702
-0.059669 -0.205858 0.209910 -0.198898 -0.686192 0.699700
-0.095317 0.192625 0.209309 -0.317722 0.642083 0.697698
0.200944 -0.077861 0.208709 0.669812 -0.259536 0.695696
-0.201304 -0.078534 0.208108 -0.671014 -0.261781 0.693694
0.095641 0.194405 0.207508 0.318803 0.648018 0.691692
0.060957 -0.208504 0.206907 0.203191 -0.695012 0.689690
-0.186278 0.112864 0.206306 -0.620927 0.376212 0.687688
0.214150 0.042718 0.205706 0.713834 0.142393 0.685686
-0.129386 -0.176610 0.205105 -0.431286 -0.588701 0.683684
-0.023955 0.218184 0.204505 -0.079849 0.727279 0.681682
0.165464 -0.145068 0.203904 0.551547 -0.483562 0.679680
-0.220555 -0.004812 0.203303 -0.735184 -0.016042 0.677678
0.159779 0.152913 0.202703 0.532595 0.509710 0.675676
-0.014560 -0.221230 0.202102 -0.048535 -0.737433 0.673674
-0.139044 0.173390 0.201502 -0.463480 0.577965 0.671672
0.220186 -0.034012 0.200901 0.733954 -0.113374 0.669670
-0.185783 -0.123954 0.200300 -0.619276 -0.413180 0.667668
0.053389 0.217416 0.199700 0.177963 0.724720 0.665666
0.107752 -0.196848 0.199099 0.359172 -0.656160 0.663664
-0.212925 0.072536 0.198498 -0.709749 0.241786 0.661662
0.206485 0.090555 0.197898 0.688284 0.301851 0.659660
-0.091299 -0.206732 0.197297 -0.304330 -0.689108 0.657658
-0.072492 0.214605 0.196697 -0.241640 0.715350 0.655656
0.198873 -0.109526 0.196096 0.662909 -0.365088 0.653654
-0.221129 -0.053697 0.195495 -0.737097 -0.178991 0.651652
0.127069 0.189393 0.194895 0.423562 0.631309 0.649650
0.034313 -0.225992 0.194294 0.114378 -0.753306 0.647648
-0.178353 0.143781 0.193694 -0.594511 0.479269 0.645646
0.229140 0.014489 0.193093 0.763800 0.048295 0.643644
-0.159523 -0.165828 0.192492 -0.531744 -0.552761 0.641642
0.005624 0.230534 0.191892 0.018747 0.768446 0.639640
0.151904 -0.174163 0.191291 0.506346 -0.580544 0.637638
-0.230148 0.025868 0.190691 -0.767158 0.086228 0.635636
0.187576 0.136678 0.190090 0.625253 0.455595 0.633634
-0.046085 -0.227969 0.189489 -0.153617 -0.759897 0.631632
-0.120261 0.199645 0.188889 -0.400870 0.665484 0.629630
0.224001 -0.066114 0.188288 0.746670 -0.220382 0.627628
-0.210265 -0.102772 0.187688 -0.700883 -0.342572 0.625626
0.085797 0.218260 0.187087 0.285991 0.727532 0.623624
0.084340 -0.219339 0.186486 0.281132 -0.731130 0.621622
-0.210776 0.104975 0.185886 -0.702588 0.349917 0.619620
0.226784 0.065102 0.185285 0.755947 0.217008 0.617618
-0.123493 -0.201596 0.184685 -0.411644 -0.671987 0.615616
-0.045205 0.232529 0.184084 -0.150685 0.775095 0.613614
0.190778 -0.141200 0.183483 0.635927 -0.470668 0.611612
-0.236514 -0.024800 0.182883 -0.788379 -0.082667 0.609610
0.157951 0.178395 0.182282 0.526503 0.594649 0.607608
0.004043 -0.238695 0.181682 0.013478 -0.795651 0.605606
-0.164531 0.173606 0.181081 -0.548438 0.578687 0.603604
0.239042 -0.016904 0.180480 0.796806 -0.056348 0.601602
-0.188034 -0.149286 0.179880 -0.626780 -0.497621 0.599600
0.037880 0.237538 0.179279 0.126266 0.791792 0.597598
0.132769 -0.201113 0.178679 0.442563 -0.670376 0.595596
-0.234180 0.058718 0.178078 -0.780601 0.195727 0.593594
0.212729 0.115100 0.177477 0.709098 0.383666 0.591592
-0.079255 -0.228983 0.176877 -0.264183 -0.763277 0.589590
-0.096409 0.222782 0.176276 -0.321364 0.742607 0.587588
0.221974 -0.099327 0.175676 0.739912 -0.331089 0.585586
-0.231181 -0.076837 0.175075 -0.770604 -0.256123 0.583584
0.118773 0.213194 0.174474 0.395909 0.710647 0.581582
0.056530 -0.237849 0.173874 0.188434 -0.792831 0.579580
-0.202701 0.137436 0.173273 -0.675670 0.458120 0.577578
0.242721 0.035643 0.172673 0.809072 0.118810 0.575576
-0.155165 -0.190565 0.172072 -0.517217 -0.635217 0.573574
-0.014335 0.245748 0.171471 -0.047785 0.819160 0.571572
0.176870 -0.171814 0.170871 0.589567 -0.572714 0.569570
-0.246892 0.007229 0.170270 -0.822974 0.024095 0.567568
0.187246 0.161713 0.169670 0.624153 0.539044 0.565566
-0.028882 -0.246133 0.169069 -0.096272 -0.820444 0.563564
-0.145203 0.201332 0.168468 -0.484011 0.671105 0.561562
0.243464 -0.050455 0.167868 0.811546 -0.168183 0.559560
-0.213952 -0.127461 0.167267 -0.713173 -0.424869 0.557558
0.071779 0.238893 0.166667 0.239263 0.796311 0.555556
0.108617 -0.224999 0.166066 0.362056 -0.749996 0.553554
-0.232445 0.092685 0.165465 -0.774816 0.308950 0.551552
0.234376 0.088812 0.164865 0.781253 0.296039 0.549550
-0.113008 -0.224157 0.164264 -0.376692 -0.747191 0.547548
-0.068194 0.241999 0.163664 -0.227314 0.806665 0.545546
0.214084 -0.132584 0.163063 0.713614 -0.441946 0.543544
-0.247799 -0.046921 0.162462 -0.825997 -0.156403 0.541542
0.151256 0.202293 0.161862 0.504186 0.674310 0.539540
0.025154 -0.251718 0.161261 0.083846 -0.839061 0.537538
-0.188865 0.168873 0.160661 -0.629552 0.562909 0.535536
0.253715 0.003060 0.160060 0.845717 0.010200 0.533534
-0.185290 -0.173897 0.159459 -0.617634 -0.579657 0.531532
0.019190 0.253763 0.158859 0.063966 0.845876 0.529530
0.157495 -0.200373 0.158258 0.524985 -0.667911 0.527528
-0.251850 0.041423 0.157658 -0.839499 0.138076 0.525526
0.213997 0.139780 0.157057 0.713322 0.465935 0.523524
-0.063465 -0.247979 0.156456 -0.211551 -0.826596 0.521522
-0.120883 0.226045 0.155856 -0.402942 0.753483 0.519520
0.242170 -0.085144 0.155255 0.807233 -0.283815 0.517518
-0.236416 -0.100943 0.154655 -0.788053 -0.336476 0.515516
0.106289 0.234457 0.154054 0.354295 0.781523 0.513514
0.080111 -0.245019 0.153453 0.267036 -0.816730 0.511512
-0.224890 0.126730 0.152853 -0.749633 0.422434 0.509510
0.251777 0.058544 0.152252 0.839258 0.195148 0.507508
-0.146306 -0.213533 0.151652 -0.487687 -0.711776 0.505506
-0.036407 0.256628 0.151051 -0.121357 0.855428 0.503504
0.200465 -0.164859 0.150450 0.668217 -0.549529 0.501502
-0.259524 -0.013869 0.149850 -0.865080 -0.046230 0.499499
0.182238 0.185779 0.149249 0.607461 0.619263 0.497497
-0.008897 -0.260431 0.148649 -0.029656 -0.868104 0.495495
-0.169581 0.198303 0.148048 -0.565269 0.661011 0.493493
0.259333 -0.031714 0.147447 0.864443 -0.105712 0.491491
-0.212921 -0.151988 0.146847 -0.709738 -0.506628 0.489489
0.054405 0.256227 0.146246 0.181349 0.854089 0.487487
0.133132 -0.225972 0.145646 0.443774 -0.753239 0.485485
-0.251127 0.076792 0.145045 -0.837091 0.255974 0.483483
0.237344 0.113152 0.144444 0.791148 0.377174 0.481481
-0.098701 -0.244064 0.143844 -0.329002 -0.813546 0.479479
-0.092198 0.246943 0.143243 -0.307328 0.823143 0.477477
0.235082 -0.119957 0.142643 0.783606 -0.399856 0.475475
-0.254684 -0.070429 0.142042 -0.848946 -0.234764 0.473473
0.140392 0.224242 0.141441 0.467975 0.747472 0.471471
0.048010 -0.260497 0.140841 0.160034 -0.868325 0.469469
-0.211619 0.159844 0.140240 -0.705396 0.532814 0.467467
0.264330 0.025112 0.139640 0.881099 0.083707 0.465465
-0.178157 -0.197303 0.139039 -0.593855 -0.657676 0.463463
-0.001911 0.266141 0.138438 -0.006371 0.887137 0.461461
0.181397 -0.195181 0.137838 0.604658 -0.650605 0.459459
-0.265909 0.021413 0.137237 -0.886362 0.071378 0.457457
0.210781 0.164018 0.136637 0.702602 0.546728 0.455455
-0.044681 -0.263624 0.136036 -0.148938 -0.878748 0.453453
-0.145294 0.224826 0.135435 -0.484315 0.749420 0.451451
0.259297 -0.067711 0.134835 0.864322 -0.225705 0.449449
-0.237202 -0.125365 0.134234 -0.790674 -0.417883 0.447447
0.090323 0.252950 0.133634 0.301078 0.843167 0.445445
0.104379 -0.247805 0.133033 0.347931 -0.826016 0.443443
-0.244625 0.112340 0.132432 -0.815417 0.374467 0.441441
0.256544 0.082496 0.131832 0.855146 0.274987 0.439439
-0.133587 -0.234377 0.131231 -0.445291 -0.781258 0.437437
-0.059881 0.263344 0.130631 -0.199604 0.877812 0.435435
0.222279 -0.153897 0.130030 0.740929 -0.512991 0.433433
-0.268143 -0.036707 0.129429 -0.893810 -0.122357 0.431431
0.173108 0.208415 0.128829 0.577026 0.694717 0.429429
0.013152 -0.270896 0.128228 0.043839 -0.902986 0.427427
-0.192886 0.191066 0.127628 -0.642955 0.636885 0.425425
0.271573 -0.010604 0.127027 0.905242 -0.035346 0.423423
-0.207626 -0.175807 0.126426 -0.692085 -0.586022 0.421421
0.034376 0.270159 0.125826 0.114587 0.900532 0.419419
0.157302 -0.222654 0.125225 0.524339 -0.742180 0.417417
-0.266659 0.057981 0.124625 -0.888863 0.193269 0.415415
0.236028 0.137510 0.124024 0.786759 0.458367 0.413413
-0.081234 -0.261090 0.123423 -0.270778 -0.870299 0.411411
-0.116580 0.247636 0.122823 -0.388598 0.825455 0.409409
0.253487 -0.103953 0.122222 0.844956 -0.346510 0.407407
-0.257383 -0.094668 0.121622 -0.857944 -0.315561 0.405405
0.125961 0.243901 0.121021 0.419869 0.813004 0.403403
0.071943 -0.265185 0.120420 0.239809 -0.883951 0.401401
-0.232400 0.147083 0.119820 -0.774667 0.490277 0.399399
0.270975 0.048575 0.119219 0.903248 0.161918 0.397397
-0.167153 -0.219065 0.118619 -0.557177 -0.730216 0.395395
-0.024746 0.274699 0.118018 -0.082486 0.915662 0.393393
0.203992 -0.186011 0.117417 0.679975 -0.620038 0.391391
-0.276321 -0.000636 0.116817 -0.921071 -0.002121 0.389389
0.203507 0.187293 0.116216 0.678357 0.624310 0.387387
-0.023567 -0.275822 0.115616 -0.078555 -0.919406 0.385385
-0.169090 0.219499 0.115015 -0.563634 0.731665 0.383383
0.273197 -0.047676 0.114414 0.910655 -0.158920 0.381381
-0.233859 -0.149520 0.113814 -0.779531 -0.498400 0.379379
0.071505 0.268458 0.113213 0.238349 0.894861 0.377377
0.128729 -0.246470 0.112613 0.429096 -0.821566 0.375375
-0.261636 0.094867 0.112012 -0.872121 0.316223 0.373373
0.257227 0.106873 0.111411 0.857422 0.356245 0.371371
-0.117580 -0.252776 0.110811 -0.391933 -0.842588 0.369369
-0.084120 0.266040 0.110210 -0.280400 0.886802 0.367367
0.241940 -0.139466 0.109610 0.806467 -0.464886 0.365365
-0.272836 -0.060641 0.109009 -0.909454 -0.202138 0.363363
0.160352 0.229205 0.108408 0.534507 0.764016 0.361361
0.036617 -0.277555 0.107808 0.122057 -0.925183 0.359359
-0.214663 0.180074 0.107207 -0.715542 0.600246 0.357357
0.280152 0.012232 0.106607 0.933842 0.040772 0.355355
-0.198474 -0.198420 0.106006 -0.661581 -0.661401 0.353353
0.012328 0.280602 0.105405 0.041092 0.935341 0.351351
0.180599 -0.215407 0.104805 0.601995 -0.718023 0.349349
-0.278894 0.036871 0.104204 -0.929648 0.122903 0.347347
0.230736 0.161330 0.103604 0.769119 0.537766 0.345345
-0.061208 -0.275034 0.103003 -0.204028 -0.916781 0.343343
-0.140759 0.244337 0.102402 -0.469197 0.814457 0.341341
0.269046 -0.085151 0.101802 0.896820 -0.283836 0.339339
-0.256100 -0.119041 0.101201 -0.853668 -0.396805 0.337337
0.108512 0.260969 0.100601 0.361705 0.869896 0.335335
0.096342 -0.265929 0.100000 0.321138 -0.886431 0.333333
-0.250859 0.131108 0.099399 -0.836198 0.437027 0.331331
0.273741 0.072832 0.098799 0.912471 0.242773 0.329329
-0.152763 -0.238790 0.098198 -0.509212 -0.795965 0.327327
-0.048693 0.279470 0.097598 -0.162309 0.931568 0.325325
0.224847 -0.173307 0.096997 0.749490 -0.577691 0.323323
-0.283066 -0.024108 0.096396 -0.943554 -0.080360 0.321321
0.192577 0.209134 0.095796 0.641924 0.697115 0.319319
-0.000733 -0.284495 0.095195 -0.002442 -0.948316 0.317317
-0.191768 0.210421 0.094595 -0.639227 0.701402 0.315315
0.283739 -0.025638 0.093994 0.945797 -0.085460 0.313313
-0.226695 -0.172878 0.093393 -0.755652 -0.576260 0.311311
0.050415 0.280798 0.092793 0.168051 0.935995 0.309309
0.152606 -0.241272 0.092192 0.508687 -0.804239 0.307307
-0.275690 0.074873 0.091592 -0.918967 0.249577 0.305305
0.254032 0.131105 0.090991 0.846773 0.437017 0.303303
-0.098821 -0.268447 0.090390 -0.329403 -0.894825 0.301301
-0.108538 0.264872 0.089790 -0.361793 0.882907 0.299299
0.259121 -0.122072 0.089189 0.863737 -0.406907 0.297297
-0.273704 -0.085077 0.088589 -0.912347 -0.283589 0.295295
0.144446 0.247777 0.087988 0.481485 0.825924 0.293293
0.060900 -0.280454 0.087387 0.203001 -0.934847 0.291291
-0.234499 0.165766 0.086787 -0.781663 0.552553 0.289289
0.285065 0.036194 0.086186 0.950216 0.120647 0.287287
-0.185865 -0.219384 0.085586 -0.619551 -0.731279 0.285285
-0.011147 0.287495 0.084985 -0.037158 0.958316 0.283283
0.202544 -0.204585 0.084384 0.675147 -0.681951 0.281281
-0.287720 0.014047 0.083784 -0.959068 0.046823 0.279279
0.221778 0.184106 0.083183 0.739262 0.613685 0.277277
-0.039194 -0.285734 0.082583 -0.130648 -0.952447 0.275275
-0.164207 0.237308 0.081982 -0.547357 0.791026 0.273273
0.281546 -0.064101 0.081381 0.938487 -0.213669 0.271271
-0.251049 -0.142999 0.080781 -0.836831 -0.476664 0.269269
0.088572 0.275184 0.080180 0.295242 0.917279 0.267267
0.120643 -0.262893 0.079580 0.402142 -0.876308 0.265265
-0.266691 0.112420 0.078979 -0.888970 0.374733 0.263263
0.272742 0.097307 0.078378 0.909140 0.324357 0.261261
-0.135457 -0.256129 0.077778 -0.451523 -0.853763 0.259259
-0.073171 0.280517 0.077177 -0.243904 0.935056 0.257257
0.243574 -0.157504 0.076577 0.811914 -0.525014 0.255255
-0.286152 -0.048420 0.075976 -0.953841 -0.161399 0.253253
0.178389 0.229120 0.075375 0.594630 0.763733 0.251251
0.023242 -0.289601 0.074775 0.077474 -0.965336 0.249249
-0.212873 0.197947 0.074174 -0.709577 0.659825 0.247247
0.290830 -0.002168 0.073574 0.969434 -0.007226 0.245245
-0.216026 -0.194956 0.072973 -0.720086 -0.649853 0.243243
0.027614 0.289827 0.072372 0.092047 0.966090 0.241241
0.175503 -0.232481 0.071772 0.585011 -0.774937 0.239239
-0.286594 0.052900 0.071171 -0.955314 0.176335 0.237237
0.247183 0.154662 0.070571 0.823944 0.515540 0.235235
-0.077831 -0.281152 0.069970 -0.259437 -0.937174 0.233233
-0.132590 0.260015 0.069369 -0.441968 0.866716 0.231231
0.273539 -0.102213 0.068769 0.911795 -0.340710 0.229229
-0.270873 -0.109457 0.068168 -0.902911 -0.364856 0.227227
0.125857 0.263808 0.067568 0.419522 0.879361 0.225225
0.085438 -0.279671 0.066967 0.284792 -0.932237 0.223223
-0.252032 0.148578 0.066366 -0.840106 0.495260 0.221221
0.286336 0.060716 0.065766 0.954454 0.202388 0.219219
-0.170200 -0.238297 0.065165 -0.567333 -0.794323 0.217217
-0.035483 0.290813 0.064565 -0.118277 0.969378 0.215215
0.222706 -0.190554 0.063964 0.742353 -0.635179 0.213213
-0.293064 -0.009932 0.063363 -0.976880 -0.033106 0.211211
0.209480 0.205376 0.062763 0.698265 0.684585 0.209209
-0.015741 -0.293067 0.062162 -0.052471 -0.976889 0.207207
-0.186437 0.226829 0.061562 -0.621456 0.756097 0.205205
0.290818 -0.041338 0.060961 0.969392 -0.137794 0.203203
-0.242466 -0.166033 0.060360 -0.808219 -0.553444 0.201201
0.066661 0.286330 0.059760 0.222203 0.954435 0.199199
0.144319 -0.256266 0.059159 0.481065 -0.854219 0.197197
-0.279636 0.091513 0.058559 -0.932119 0.305044 0.195195
0.268119 0.121461 0.057958 0.893731 0.404871 0.193193
-0.115703 -0.270782 0.057357 -0.385677 -0.902607 0.191191
-0.097633 0.277932 0.056757 -0.325444 0.926441 0.189189
0.259834 -0.139043 0.056156 0.866113 -0.463476 0.187187
-0.285626 -0.073018 0.055556 -0.952085 -0.243392 0.185185
0.161350 0.246872 0.054955 0.537834 0.822908 0.183183
0.047803 -0.291136 0.054354 0.159344 -0.970455 0.181181
-0.231995 0.182452 0.053754 -0.773317 0.608174 0.179179
0.294419 0.022184 0.053153 0.981397 0.073946 0.177177
-0.202184 -0.215313 0.052553 -0.673947 -0.717711 0.175175
0.003644 0.295445 0.051952 0.012145 0.984817 0.173173
0.196954 -0.220391 0.051351 0.656512 -0.734638 0.171171
-0.294203 0.029480 0.050751 -0.980676 0.098266 0.169169
0.236931 0.177055 0.050150 0.789771 0.590183 0.167167
-0.055126 -0.290699 0.049550 -0.183753 -0.968997 0.165165
-0.155769 0.251674 0.048949 -0.519230 0.838915 0.163163
0.284958 -0.080383 0.048348 0.949859 -0.267944 0.161161
-0.264504 -0.133258 0.047748 -0.881681 -0.444193 0.159159
0.105057 0.277020 0.047147 0.350189 0.923401 0.157157
0.109694 -0.275319 0.046547 0.365647 -0.917731 0.155155
-0.266945 0.128955 0.045946 -0.889816 0.429851 0.153153
0.284033 0.085258 0.045345 0.946778 0.284192 0.151151
-0.151893 -0.254806 0.044745 -0.506311 -0.849355 0.149149
-0.060136 0.290577 0.044144 -0.200453 0.968590 0.147147
0.240696 -0.173693 0.043544 0.802321 -0.578977 0.145145
-0.294897 -0.034522 0.042943 -0.982989 -0.115074 0.143143
0.194185 0.224721 0.042342 0.647282 0.749070 0.141141
0.008614 -0.296957 0.041742 0.028712 -0.989857 0.139139
-0.207001 0.213209 0.041141 -0.690004 0.710695 0.137137
0.296739 -0.017391 0.040541 0.989130 -0.057969 0.135135
-0.230616 -0.187672 0.039940 -0.768722 -0.625574 0.133133
0.043290 0.294242 0.039339 0.144301 0.980807 0.131131
0.166881 -0.246272 0.038739 0.556270 -0.820908 0.129129
-0.289483 0.068885 0.038138 -0.964943 0.229617 0.127127
0.260054 0.144786 0.037538 0.866845 0.482621 0.125125
-0.093977 -0.282496 0.036937 -0.313258 -0.941653 0.123123
-0.121557 0.271852 0.036336 -0.405191 0.906173 0.121121
0.273333 -0.118373 0.035736 0.911109 -0.394578 0.119119
-0.281574 -0.097372 0.035135 -0.938582 -0.324574 0.117117
0.141884 0.262062 0.034535 0.472946 0.873539 0.115115
0.072416 -0.289144 0.033934 0.241388 -0.963814 0.113113
-0.248768 0.164327 0.033333 -0.829227 0.547756 0.111111
0.294501 0.046881 0.032733 0.981669 0.156272 0.109109
-0.185528 -0.233552 0.032132 -0.618428 -0.778508 0.107107
-0.020964 0.297601 0.031532 -0.069880 0.992003 0.105105
0.216530 -0.205324 0.030931 0.721768 -0.684413 0.103103
-0.298419 0.005136 0.030330 -0.994729 0.017121 0.101101
0.223559 0.197832 0.029730 0.745198 0.659439 0.099099
-0.031219 -0.296946 0.029129 -0.104062 -0.989820 0.097097
-0.177599 0.240093 0.028529 -0.591997 0.800311 0.095095
0.293192 -0.057082 0.027928 0.977308 -0.190272 0.093093
-0.254796 -0.155987 0.027327 -0.849321 -0.519958 0.091091
0.082526 0.287185 0.026727 0.275087 0.957283 0.089089
0.133162 -0.267554 0.026126 0.443874 -0.891847 0.087087
-0.278968 0.107355 0.025526 -0.929894 0.357850 0.085085
0.278267 0.109299 0.024925 0.927557 0.364329 0.083083
-0.131377 -0.268605 0.024324 -0.437923 -0.895348 0.081081
-0.084580 0.286851 0.023724 -0.281934 0.956169 0.079079
0.256172 -0.154406 0.023123 0.853906 -0.514687 0.077077
-0.293238 -0.059196 0.022523 -0.977460 -0.197321 0.075075
0.176264 0.241765 0.021922 0.587547 0.805884 0.073073
0.033343 -0.297378 0.021321 0.111143 -0.991260 0.071071
-0.225494 0.196782 0.020721 -0.751646 0.655940 0.069069
0.299237 0.007219 0.020120 0.997458 0.024063 0.067067
-0.215801 -0.207483 0.019520 -0.719336 -0.691609 0.065065
0.018975 0.298801 0.018919 0.063249 0.996003 0.063063
0.187869 -0.233173 0.018318 0.626231 -0.777243 0.061061
-0.296071 0.045036 0.017718 -0.986902 0.150120 0.059059
0.248764 0.166804 0.017117 0.829212 0.556014 0.057057
-0.070764 -0.291066 0.016517 -0.235880 -0.970221 0.055055
-0.144449 0.262452 0.015916 -0.481497 0.874841 0.053053
0.283826 -0.095960 0.015315 0.946086 -0.319867 0.051051
-0.274132 -0.120976 0.014715 -0.913773 -0.403252 0.049049
0.120430 0.274404 0.014114 0.401434 0.914679 0.047047
0.096564 -0.283712 0.013514 0.321882 -0.945708 0.045045
-0.262872 0.143985 0.012913 -0.876239 0.479950 0.043043
0.291118 0.071403 0.012312 0.970395 0.238011 0.041041
-0.166443 -0.249318 0.011712 -0.554809 -0.831061 0.039039
-0.045686 0.296293 0.011111 -0.152286 0.987642 0.037037
0.233847 -0.187630 0.010511 0.779490 -0.625434 0.035035
-0.299194 -0.019610 0.009910 -0.997314 -0.065367 0.033033
0.207383 0.216577 0.009309 0.691278 0.721922 0.031031
-0.006623 -0.299800 0.008709 -0.022077 -0.999335 0.029029
-0.197640 0.225550 0.008108 -0.658799 0.751833 0.027027
0.298106 -0.032812 0.007508 0.993686 -0.109372 0.025025
-0.241989 -0.177182 0.006907 -0.806632 -0.590606 0.023023
0.058754 0.294123 0.006306 0.195845 0.980410 0.021021
0.155360 -0.256575 0.005706 0.517868 -0.855249 0.019019
-0.287882 0.084249 0.005105 -0.959607 0.280830 0.017017
0.269193 0.132343 0.004505 0.897311 0.441144 0.015015
-0.109101 -0.279431 0.003904 -0.363670 -0.931437 0.013013
-0.108308 0.279747 0.003303 -0.361026 0.932491 0.011011
0.268835 -0.133119 0.002703 0.896116 -0.443729 0.009009
-0.288155 -0.083439 0.002102 -0.960518 -0.278130 0.007007
0.156116 0.256175 0.001502 0.520388 0.853915 0.005005
0.057928 -0.294353 0.000901 0.193095 -0.981175 0.003003
-0.241548 0.177917 0.000300 -0.805160 0.593057 0.001001
0.298291 0.031973 -0.000300 0.994304 0.106576 -0.001001
-0.198353 -0.225068 -0.000901 -0.661175 -0.750226 -0.003003
-0.005772 0.299941 -0.001502 -0.019240 0.999802 -0.005005
0.206861 -0.217265 -0.002102 0.689535 -0.724218 -0.007007
-0.299288 0.020472 -0.002703 -0.997628 0.068240 -0.009009
0.234510 0.187067 -0.003303 0.781700 0.623557 -0.011011
-0.046557 -0.296340 -0.003904 -0.155191 -0.987799 -0.013013
-0.165840 0.249954 -0.004505 -0.552800 0.833178 -0.015015
0.291117 -0.072282 -0.005105 0.970391 -0.240941 -0.017017
-0.263477 -0.143343 -0.005706 -0.878257 -0.477810 -0.019019
0.097449 0.283662 -0.006306 0.324831 0.945539 -0.021021
0.119749 -0.274977 -0.006907 0.399164 -0.916590 -0.023023
-0.274031 0.121864 -0.007508 -0.913435 0.406214 -0.025025
0.284365 0.095241 -0.008108 0.947883 0.317471 -0.027027
-0.145339 -0.262299 -0.008709 -0.484464 -0.874330 -0.029029
-0.070008 0.291569 -0.009309 -0.233359 0.971895 -0.031031
0.248557 -0.167693 -0.009910 0.828524 -0.558978 -0.033033
-0.296533 -0.044243 -0.010511 -0.988445 -0.147477 -0.035035
0.188755 0.232912 -0.011111 0.629184 0.776374 -0.037037
0.018146 -0.299222 -0.011712 0.060488 -0.997405 -0.039039
-0.215484 0.208362 -0.012312 -0.718282 0.694541 -0.041041
0.299613 -0.008081 -0.012913 0.998710 -0.026938 -0.043043
-0.226364 -0.196409 -0.013514 -0.754548 -0.654698 -0.045045
0.034238 0.297705 -0.014114 0.114127 0.992351 -0.047047
0.175834 -0.242623 -0.014715 0.586113 -0.808743 -0.049049
-0.293514 0.060122 -0.015315 -0.978382 0.200408 -0.051051
0.257014 0.153918 -0.015916 0.856712 0.513059 -0.053053
-0.085535 -0.287073 -0.016517 -0.285116 -0.956911 -0.055055
-0.130830 0.269426 -0.017117 -0.436099 0.898088 -0.057057
0.278432 -0.110280 -0.017718 0.928107 -0.367598 -0.059059
-0.279766 -0.106749 -0.018318 -0.932554 -0.355829 -0.061061
0.134166 0.267659 -0.018919 0.447222 0.892197 -0.063063
0.081860 -0.287955 -0.019520 0.272868 -0.959849 -0.065065
-0.254838 0.157012 -0.020120 -0.849460 0.523373 -0.067067
0.293929 0.056357 -0.020721 0.979765 0.187857 -0.069069
-0.178641 -0.240069 -0.021321 -0.595468 -0.800229 -0.071071
-0.030436 0.297646 -0.021922 -0.101452 0.992153 -0.073073
0.223466 -0.198886 -0.022523 0.744886 -0.662954 -0.075075
-0.299077 -0.004296 -0.023123 -0.996922 -0.014320 -0.077077
0.217594 0.205159 -0.023724 0.725313 0.683863 -0.079079
-0.021861 -0.298212 -0.024324 -0.072868 -0.994040 -0.081081
-0.185289 0.234620 -0.024925 -0.617631 0.782067 -0.083083
0.295060 -0.047832 -0.025526 0.983534 -0.159441 -0.085085
-0.249835 -0.164012 -0.026126 -0.832783 -0.546706 -0.087087
0.073419 0.289647 -0.026727 0.244730 0.965490 -0.089089
0.141491 -0.263123 -0.027327 0.471637 -0.877075 -0.091091
-0.282015 0.098424 -0.027928 -0.940051 0.328081 -0.093093
0.274382 0.117901 -0.028529 0.914606 0.393004 -0.095095
-0.122656 -0.272226 -0.029129 -0.408853 -0.907420 -0.097097
-0.093425 0.283528 -0.029730 -0.311417 0.945092 -0.099099
0.260356 -0.145927 -0.030330 0.867854 -0.486424 -0.101101
-0.290491 -0.068252 -0.030931 -0.968303 -0.227506 -0.103103
0.168060 0.246499 -0.031532 0.560200 0.821662 -0.105105
0.042576 -0.295220 -0.032132 0.141920 -0.984066 -0.107107
-0.230762 0.188885 -0.032733 -0.769206 0.629617 -0.109109
0.297680 0.016596 -0.033333 0.992267 0.055319 -0.111111
-0.208242 -0.213269 -0.033934 -0.694142 -0.710896 -0.113113
0.009488 0.297855 -0.034535 0.031628 0.992849 -0.115115
0.194156 -0.225985 -0.035135 0.647186 -0.753282 -0.117117
-0.295744 0.035475 -0.035736 -0.985813 0.118251 -0.119119
0.241977 0.173571 -0.036336 0.806588 0.578571 -0.121121
-0.061165 -0.291367 -0.036937 -0.203883 -0.971222 -0.123123
-0.151676 0.256096 -0.037538 -0.505586 0.853655 -0.125125
0.284759 -0.086360 -0.038138 0.949195 -0.287866 -0.127127
-0.268237 -0.128639 -0.038739 -0.894125 -0.428797 -0.129129
0.110866 0.275973 -0.039339 0.369553 0.919910 -0.131131
0.104640 -0.278308 -0.039940 0.348799 -0.927693 -0.133133
-0.265080 0.134496 -0.040541 -0.883600 0.448319 -0.135135
0.286233 0.079864 -0.041141 0.954109 0.266213 -0.137137
-0.157068 -0.252165 -0.041742 -0.523558 -0.840551 -0.139139
-0.054503 0.291953 -0.042342 -0.181677 0.973177 -0.141141
0.237331 -0.178409 -0.042943 0.791104 -0.594697 -0.143143
-0.295427 -0.028753 -0.043544 -0.984757 -0.095844 -0.145145
0.198357 0.220694 -0.044144 0.661190 0.735647 -0.147147
0.002814 -0.296631 -0.044745 0.009379 -0.988770 -0.149149
-0.202384 0.216759 -0.045345 -0.674613 0.722531 -0.151151
0.295558 -0.023116 -0.045946 0.985194 -0.077054 -0.153153
-0.233476 -0.182544 -0.046547 -0.778254 -0.608480 -0.155155
0.048836 0.292219 -0.047147 0.162786 0.974065 -0.157157
0.161329 -0.248381 -0.047748 0.537763 -0.827937 -0.159159
-0.286644 0.074148 -0.048348 -0.955479 0.247160 -0.161161
0.261361 0.138904 -0.048949 0.871204 0.463014 -0.163163
-0.098858 -0.278876 -0.049550 -0.329525 -0.929588 -0.165165
-0.115444 0.272319 -0.050150 -0.384814 0.907730 -0.167167
0.268981 -0.122775 -0.050751 0.896602 -0.409252 -0.169169
-0.281173 -0.091131 -0.051351 -0.937243 -0.303770 -0.171171
0.145718 0.257035 -0.051952 0.485728 0.856785 -0.173173
0.066153 -0.287858 -0.052553 0.220510 -0.959525 -0.175175
-0.243136 0.167511 -0.053153 -0.810452 0.558369 -0.177177
0.292325 0.040704 -0.053754 0.974416 0.135679 -0.179179
-0.187986 -0.227391 -0.054354 -0.626620 -0.757971 -0.181181
-0.014980 0.294543 -0.054955 -0.049933 0.981810 -0.183183
0.209926 -0.206989 -0.055556 0.699755 -0.689963 -0.185185
-0.294499 0.010820 -0.056156 -0.981662 0.036066 -0.187187
0.224375 0.190878 -0.056757 0.747917 0.636261 -0.189189
-0.036496 -0.292195 -0.057357 -0.121655 -0.973985 -0.191191
-0.170396 0.240013 -0.057958 -0.567986 0.800043 -0.193193
0.287655 -0.061852 -0.058559 0.958849 -0.206175 -0.195195
-0.253785 -0.148639 -0.059159 -0.845948 -0.495464 -0.197197
0.086693 0.280915 -0.059760 0.288976 0.936383 -0.199199
0.125778 -0.265587 -0.060360 0.419261 -0.885290 -0.201201
-0.272032 0.110827 -0.060961 -0.906772 0.369423 -0.203203
0.275333 0.101991 -0.061562 0.917775 0.339970 -0.205205
-0.134070 -0.261077 -0.062162 -0.446900 -0.870256 -0.207207
-0.077462 0.282950 -0.062763 -0.258207 0.943165 -0.209209
0.248139 -0.156245 -0.063363 0.827128 -0.520815 -0.211211
-0.288383 -0.052382 -0.063964 -0.961277 -0.174607 -0.213213
0.177181 0.233320 -0.064565 0.590605 0.777733 -0.215215
0.026945 -0.291595 -0.065165 0.089817 -0.971982 -0.217217
-0.216738 0.196722 -0.065766 -0.722461 0.655738 -0.219219
0.292564 0.001348 -0.066366 0.975213 0.004492 -0.221221
-0.214717 -0.198525 -0.066967 -0.715722 -0.661750 -0.223223
0.024212 0.291287 -0.067568 0.080708 0.970958 -0.225225
0.178823 -0.231031 -0.068168 0.596077 -0.770104 -0.227227
-0.287779 0.049538 -0.068769 -0.959264 0.165127 -0.229229
0.245542 0.157787 -0.069369 0.818474 0.525958 -0.231231
-0.074435 -0.282070 -0.069970 -0.248116 -0.940234 -0.233233
-0.135583 0.258142 -0.070571 -0.451942 0.860473 -0.235235
0.274209 -0.098712 -0.071171 0.914031 -0.329039 -0.237237
-0.268736 -0.112382 -0.071772 -0.895787 -0.374607 -0.239239
0.122182 0.264261 -0.072372 0.407274 0.880869 -0.241241
0.088367 -0.277248 -0.072973 0.294555 -0.924159 -0.243243
-0.252306 0.144668 -0.073574 -0.841019 0.482226 -0.245245
0.283615 0.063723 -0.074174 0.945384 0.212410 -0.247247
-0.165997 -0.238440 -0.074775 -0.553323 -0.794801 -0.249249
-0.038643 0.287794 -0.075375 -0.128809 0.959313 -0.251251
0.222776 -0.186007 -0.075976 0.742585 -0.620024 -0.253253
-0.289756 -0.013320 -0.076577 -0.965854 -0.044399 -0.255255
0.204548 0.205436 -0.077177 0.681825 0.684787 -0.257257
-0.012050 -0.289492 -0.077778 -0.040167 -0.964972 -0.259259
-0.186559 0.221478 -0.078378 -0.621863 0.738260 -0.261261
0.287007 -0.037271 -0.078979 0.956691 -0.124237 -0.263263
-0.236672 -0.166293 -0.079580 -0.788906 -0.554311 -0.265265
0.062149 0.282327 -0.080180 0.207164 0.941090 -0.267267
0.144798 -0.250016 -0.080781 0.482662 -0.833386 -0.269269
-0.275492 0.086493 -0.081381 -0.918307 0.288311 -0.271271
0.261411 0.122243 -0.081982 0.871370 0.407476 -0.273273
-0.110117 -0.266560 -0.082583 -0.367057 -0.888534 -0.275275
-0.098803 0.270774 -0.083183 -0.329343 0.902580 -0.277277
0.255605 -0.132840 -0.083784 0.852016 -0.442799 -0.279279
-0.278038 -0.074661 -0.084384 -0.926792 -0.248871 -0.281281
0.154488 0.242716 -0.084985 0.514962 0.809052 -0.283283
0.050006 -0.283151 -0.085586 0.166687 -0.943837 -0.285285
-0.227996 0.174899 -0.086186 -0.759988 0.582996 -0.287287
0.286080 0.025028 -0.086787 0.953599 0.083428 -0.289289
-0.193917 -0.211565 -0.087387 -0.646389 -0.705217 -0.291291
0.000078 0.286807 -0.087988 0.000260 0.956022 -0.293293
0.193553 -0.211399 -0.088589 0.645176 -0.704662 -0.295295
-0.285332 0.025119 -0.089189 -0.951106 0.083731 -0.297297
0.227214 0.174103 -0.089790 0.757379 0.580342 -0.299299
-0.049903 -0.281672 -0.090390 -0.166343 -0.938908 -0.301301
-0.153368 0.241245 -0.090991 -0.511226 0.804148 -0.303303
0.275862 -0.074238 -0.091592 0.919539 -0.247459 -0.305305
-0.253387 -0.131512 -0.092192 -0.844624 -0.438374 -0.307307
0.097938 0.267951 -0.092793 0.326459 0.893170 -0.309309
0.108707 -0.263553 -0.093393 0.362357 -0.878512 -0.311311
-0.258006 0.120822 -0.093994 -0.860021 0.402739 -0.313313
0.271670 0.085131 -0.094595 0.905566 0.283770 -0.315315
-0.142715 -0.246110 -0.095195 -0.475718 -0.820367 -0.317317
-0.060968 0.277680 -0.095796 -0.203227 0.925599 -0.319319
0.232360 -0.163452 -0.096396 0.774533 -0.544841 -0.321321
-0.281543 -0.036406 -0.096997 -0.938475 -0.121353 -0.323323
0.182876 0.216866 -0.097598 0.609587 0.722888 -0.325325
0.011636 -0.283234 -0.098198 0.038785 -0.944115 -0.327327
-0.199755 0.200841 -0.098799 -0.665848 0.669468 -0.329329
0.282749 -0.013152 -0.099399 0.942495 -0.043839 -0.331331
-0.217211 -0.181161 -0.100000 -0.724038 -0.603870 -0.333333
0.037764 0.280095 -0.100601 0.125880 0.933651 -0.335335
0.161233 -0.231867 -0.101201 0.537444 -0.772889 -0.337337
-0.275301 0.062012 -0.101802 -0.917671 0.206708 -0.339339
0.244699 0.140129 -0.102402 0.815663 0.467098 -0.341341
-0.085711 -0.268410 -0.103003 -0.285702 -0.894701 -0.343343
-0.118016 0.255614 -0.103604 -0.393386 0.852047 -0.345345
0.259482 -0.108678 -0.104204 0.864938 -0.362259 -0.347347
-0.264534 -0.095066 -0.104805 -0.881781 -0.316888 -0.349349
0.130738 0.248590 -0.105405 0.435795 0.828635 -0.351351
0.071460 -0.271397 -0.106006 0.238201 -0.904655 -0.353353
-0.235827 0.151726 -0.106607 -0.786090 0.505752 -0.355355
0.276155 0.047382 -0.107207 0.920516 0.157942 -0.357357
-0.171480 -0.221296 -0.107808 -0.571601 -0.737654 -0.359359
-0.023020 0.278779 -0.108408 -0.076733 0.929263 -0.361361
0.205115 -0.189855 -0.109009 0.683718 -0.632848 -0.363363
-0.279256 0.001438 -0.109610 -0.930852 0.004794 -0.365365
0.206711 0.187415 -0.110210 0.689036 0.624717 -0.367367
-0.025803 -0.277588 -0.110811 -0.086010 -0.925294 -0.369369
-0.168337 0.221924 -0.111411 -0.561124 0.739746 -0.371371
0.273797 -0.049886 -0.112012 0.912656 -0.166288 -0.373373
-0.235382 -0.148033 -0.112613 -0.784606 -0.493444 -0.375375
0.073504 0.267918 -0.113213 0.245012 0.893060 -0.377377
0.126665 -0.246987 -0.113814 0.422216 -0.823289 -0.379379
-0.260004 0.096474 -0.114414 -0.866681 0.321579 -0.381381
0.256656 0.104400 -0.115015 0.855519 0.348000 -0.383383
-0.118622 -0.250124 -0.115616 -0.395405 -0.833746 -0.385385
-0.081414 0.264321 -0.116216 -0.271381 0.881069 -0.387387
0.238360 -0.139779 -0.116817 0.794534 -0.465931 -0.389389
-0.269930 -0.057888 -0.117417 -0.899766 -0.192959 -0.391391
0.159787 0.224811 -0.118018 0.532623 0.749369 -0.393393
0.034004 -0.273447 -0.118619 0.113346 -0.911491 -0.395395
-0.209587 0.178494 -0.119219 -0.698623 0.594980 -0.397397
0.274853 0.009948 -0.119820 0.916177 0.033161 -0.399399
-0.195761 -0.192812 -0.120420 -0.652537 -0.642707 -0.401401
0.014092 0.274145 -0.121021 0.046973 0.913816 -0.403403
0.174622 -0.211460 -0.121622 0.582074 -0.704867 -0.405405
-0.271335 0.037932 -0.122222 -0.904452 0.126438 -0.407407
0.225475 0.155163 -0.122823 0.751584 0.517209 -0.409409
-0.061387 -0.266455 -0.123423 -0.204623 -0.888184 -0.411411
-0.134589 0.237705 -0.124024 -0.448630 0.792351 -0.413413
0.259549 -0.084279 -0.124625 0.865164 -0.280928 -0.415415
-0.248063 -0.113065 -0.125225 -0.826875 -0.376882 -0.417417
0.106431 0.250679 -0.125826 0.354772 0.835598 -0.419419
0.090759 -0.256474 -0.126426 0.302532 -0.854914 -0.421421
-0.239922 0.127678 -0.127027 -0.799740 0.425592 -0.423423
0.262883 0.067849 -0.127628 0.876278 0.226164 -0.425425
-0.147856 -0.227368 -0.128228 -0.492854 -0.757892 -0.427427
-0.044513 0.267248 -0.128829 -0.148378 0.890828 -0.429429
0.213121 -0.166816 -0.129429 0.710403 -0.556053 -0.431431
-0.269544 -0.020934 -0.130030 -0.898480 -0.069780 -0.433433
0.184415 0.197299 -0.130631 0.614716 0.657663 -0.435435
-0.002705 -0.269761 -0.131231 -0.009018 -0.899204 -0.437437
-0.180030 0.200523 -0.131832 -0.600101 0.668410 -0.439439
0.267907 -0.026222 -0.132432 0.893023 -0.087406 -0.441441
-0.215022 -0.161455 -0.133033 -0.716739 -0.538185 -0.443443
0.049434 0.264004 -0.133634 0.164780 0.880015 -0.445445
0.141723 -0.227806 -0.134234 0.472410 -0.759355 -0.447447
-0.258093 0.072164 -0.134835 -0.860310 0.240546 -0.449449
0.238785 0.120991 -0.135435 0.795951 0.403304 -0.451451
-0.094237 -0.250227 -0.136036 -0.314124 -0.834090 -0.453453
-0.099424 0.247881 -0.136637 -0.331414 0.826272 -0.455455
0.240476 -0.115487 -0.137237 0.801587 -0.384955 -0.457457
-0.255033 -0.077193 -0.137838 -0.850111 -0.257311 -0.459459
0.135751 0.228924 -0.138438 0.452504 0.763082 -0.461461
0.054473 -0.260194 -0.139039 0.181578 -0.867313 -0.463463
-0.215669 0.154879 -0.139640 -0.718898 0.516263 -0.465465
0.263333 0.031442 -0.140240 0.877775 0.104807 -0.467467
-0.172727 -0.200822 -0.140841 -0.575756 -0.669406 -0.469469
-0.008280 0.264435 -0.141441 -0.027599 0.881449 -0.471471
0.184504 -0.189163 -0.142042 0.615012 -0.630542 -0.473473
-0.263501 0.014834 -0.142643 -0.878338 0.049447 -0.475475
0.204066 0.166849 -0.143243 0.680220 0.556162 -0.477477
-0.037720 -0.260550 -0.143844 -0.125735 -0.868499 -0.479479
-0.148000 0.217329 -0.144444 -0.493332 0.724430 -0.481481
0.255612 -0.060204 -0.145045 0.852040 -0.200678 -0.483483
-0.228857 -0.128109 -0.145646 -0.762856 -0.427029 -0.485485
0.082111 0.248736 -0.146246 0.273703 0.829122 -0.487487
0.107335 -0.238569 -0.146847 0.357784 -0.795230 -0.489489
-0.239986 0.103276 -0.147447 -0.799954 0.344253 -0.491491
0.246399 0.085844 -0.148048 0.821331 0.286147 -0.493493
-0.123538 -0.229438 -0.148649 -0.411795 -0.764794 -0.495495
-0.063806 0.252296 -0.149249 -0.212685 0.840988 -0.497497
0.217183 -0.142746 -0.149850 0.723945 -0.475819 -0.499499
-0.256225 -0.041394 -0.150450 -0.854083 -0.137979 -0.501502
0.160755 0.203326 -0.151051 0.535849 0.677753 -0.503504
0.018784 -0.258165 -0.151652 0.062612 -0.860549 -0.505506
-0.187982 0.177432 -0.152252 -0.626605 0.591440 -0.507508
0.258111 -0.003848 -0.152853 0.860369 -0.012826 -0.509510
-0.192656 -0.171277 -0.153453 -0.642185 -0.570924 -0.511512
0.026326 0.256075 -0.154054 0.087752 0.853583 -0.513514
0.153349 -0.206315 -0.154655 0.511165 -0.687717 -0.515516
-0.252083 0.048476 -0.155255 -0.840277 0.161586 -0.517518
0.218313 0.134344 -0.155856 0.727710 0.447814 -0.519520
-0.070129 -0.246177 -0.156456 -0.233762 -0.820592 -0.521522
-0.114415 0.228566 -0.157057 -0.381384 0.761886 -0.523524
0.238414 -0.091119 -0.157658 0.794715 -0.303730 -0.525526
-0.237003 -0.093722 -0.158258 -0.790011 -0.312405 -0.527528
0.111287 0.228865 -0.158859 0.370958 0.762882 -0.529530
0.072429 -0.243571 -0.159459 0.241429 -0.811903 -0.531532
-0.217612 0.130482 -0.160060 -0.725375 0.434941 -0.533534
0.248228 0.050705 -0.160661 0.827426 0.169018 -0.535536
-0.148560 -0.204755 -0.161261 -0.495201 -0.682517 -0.537538
-0.028723 0.250950 -0.161862 -0.095743 0.836499 -0.539540
0.190402 -0.165387 -0.162462 0.634673 -0.551292 -0.541542
-0.251726 -0.006653 -0.163063 -0.839088 -0.022176 -0.543544
0.180841 0.174673 -0.163664 0.602803 0.582245 -0.545546
-0.015332 -0.250564 -0.164264 -0.051107 -0.835212 -0.547548
-0.157700 0.194808 -0.164865 -0.525666 0.649361 -0.549550
0.247482 -0.037062 -0.165465 0.824942 -0.123541 -0.551552
-0.207191 -0.139621 -0.166066 -0.690636 -0.465403 -0.553554
0.058370 0.242518 -0.166667 0.194566 0.808395 -0.555556
0.120584 -0.217902 -0.167267 0.401947 -0.726339 -0.557558
-0.235722 0.079092 -0.167868 -0.785740 0.263640 -0.559560
0.226868 0.100743 -0.168468 0.756228 0.335810 -0.561562
-0.099071 -0.227157 -0.169069 -0.330238 -0.757191 -0.563564
-0.080257 0.234032 -0.169670 -0.267524 0.780107 -0.565566
0.216903 -0.118157 -0.170270 0.723010 -0.393858 -0.567568
-0.239349 -0.059290 -0.170871 -0.797829 -0.197635 -0.569570
0.136207 0.205049 -0.171471 0.454024 0.683497 -0.571572
0.038009 -0.242789 -0.172072 0.126696 -0.809297 -0.573574
-0.191699 0.153087 -0.172673 -0.638995 0.510292 -0.575576
0.244339 0.016580 -0.173273 0.814463 0.055266 -0.577578
-0.168674 -0.176966 -0.173874 -0.562248 -0.589886 -0.579580
0.004828 0.243999 -0.174474 0.016094 0.813329 -0.581582
0.160974 -0.182855 -0.175075 0.536580 -0.609518 -0.583584
-0.241784 0.026049 -0.175676 -0.805947 0.086830 -0.585586
0.195529 0.143857 -0.176276 0.651765 0.479524 -0.587588
-0.046918 -0.237725 -0.176877 -0.156395 -0.792417 -0.589590
-0.125756 0.206609 -0.177477 -0.419188 0.688695 -0.591592
0.231866 -0.067276 -0.178078 0.772888 -0.224255 -0.593594
-0.216018 -0.106819 -0.178679 -0.720059 -0.356064 -0.595596
0.086968 0.224267 -0.179279 0.289893 0.747555 -0.597598
0.087199 -0.223695 -0.179880 0.290665 -0.745650 -0.599600
-0.214997 0.105844 -0.180480 -0.716657 0.352814 -0.601602
0.229594 0.067055 -0.181081 0.765312 0.223517 -0.603604
-0.123764 -0.204143 -0.181682 -0.412546 -0.680476 -0.605606
-0.046547 0.233680 -0.182282 -0.155158 0.778934 -0.607608
0.191800 -0.140594 -0.182883 0.639333 -0.468646 -0.609610
-0.235937 -0.025839 -0.183483 -0.786456 -0.086130 -0.611612
0.156211 0.178076 -0.184084 0.520705 0.593586 -0.613614
0.005093 -0.236359 -0.184685 0.016977 -0.787864 -0.615616
-0.163089 0.170504 -0.185285 -0.543629 0.568345 -0.617618
0.234958 -0.015528 -0.185886 0.783194 -0.051760 -0.619620
-0.183369 -0.146965 -0.186486 -0.611230 -0.489882 -0.621622
0.035864 0.231759 -0.187087 0.119548 0.772530 -0.623624
0.129839 -0.194718 -0.187688 0.432797 -0.649060 -0.625626
-0.226801 0.055759 -0.188288 -0.756002 0.185862 -0.627628
0.204474 0.111854 -0.188889 0.681581 0.372846 -0.629630
-0.075059 -0.220136 -0.189489 -0.250197 -0.733787 -0.631632
-0.093156 0.212574 -0.190090 -0.310522 0.708579 -0.633634
0.211831 -0.093620 -0.190691 0.706104 -0.312065 -0.635636
-0.218967 -0.073899 -0.191291 -0.729890 -0.246330 -0.637638
0.111301 0.201964 -0.191892 0.371003 0.673215 -0.639640
0.054237 -0.223618 -0.192492 0.180791 -0.745393 -0.641642
-0.190626 0.127971 -0.193093 -0.635421 0.426571 -0.643644
0.226505 0.034328 -0.193694 0.755015 0.114427 -0.645646
-0.143509 -0.177918 -0.194294 -0.478365 -0.593060 -0.647648
-0.014330 0.227619 -0.194895 -0.047768 0.758732 -0.649650
0.163951 -0.157803 -0.195495 0.546502 -0.526009 -0.651652
-0.226969 0.005599 -0.196096 -0.756564 0.018663 -0.653654
0.170750 0.148845 -0.196697 0.569166 0.496150 -0.655656
-0.025304 -0.224574 -0.197297 -0.084346 -0.748580 -0.657658
-0.132730 0.182261 -0.197898 -0.442433 0.607538 -0.659660
0.220469 -0.044631 -0.198498 0.734895 -0.148770 -0.661662
-0.192259 -0.115741 -0.199099 -0.640864 -0.385802 -0.663664
0.063433 0.214700 -0.199700 0.211443 0.715668 -0.665666
0.098019 -0.200679 -0.200300 0.326730 -0.668930 -0.667668
-0.207330 0.081566 -0.200901 -0.691101 0.271887 -0.669670
0.207469 0.079711 -0.201502 0.691563 0.265702 -0.671672
-0.098894 -0.198431 -0.202102 -0.329646 -0.661436 -0.673674
-0.060965 0.212591 -0.202703 -0.203218 0.708636 -0.675676
0.188086 -0.115288 -0.203303 0.626955 -0.384293 -0.677678
-0.216020 -0.041935 -0.203904 -0.720067 -0.139784 -0.679680
0.130628 0.176393 -0.204505 0.435425 0.587975 -0.681682
0.022772 -0.217746 -0.205105 0.075908 -0.725820 -0.683684
-0.163455 0.144802 -0.205706 -0.544849 0.482675 -0.685686
0.217772 0.003630 -0.206306 0.725906 0.012099 -0.687688
-0.157712 -0.149387 -0.206907 -0.525707 -0.497956 -0.689690
0.015342 0.216114 -0.207508 0.051140 0.720380 -0.691692
0.134312 -0.169267 -0.208108 0.447706 -0.564224 -0.693694
-0.212803 0.033995 -0.208709 -0.709343 0.113315 -0.695696
0.179390 0.118358 -0.209309 0.597968 0.394528 -0.697698
-0.052184 -0.207881 -0.209910 -0.173947 -0.692938 -0.699700
-0.101662 0.188016 -0.210511 -0.338874 0.626721 -0.701702
0.201405 -0.069771 -0.211111 0.671351 -0.232571 -0.703704
-0.195092 -0.084363 -0.211712 -0.650307 -0.281211 -0.705706
0.086623 0.193442 -0.212312 0.288744 0.644808 -0.707708
